ply
format ascii 1.0
element vertex 1321
property float x
property float y
property float z
property uchar red
property uchar green
property uchar blue
element edge 0
property int vertex1
property int vertex2
property uchar red
property uchar green
property uchar blue
end_header
1.26003 1.49814 -0.253789 100 88 92
1.03274 1.87865 -0.124444 107 95 105
1.02534 1.873 -0.125699 105 95 104
1.13636 1.69291 -0.190953 112 99 106
1.13643 1.69192 -0.190595 111 98 107
-0.359123 2.06339 -1.05354 18 10 21
1.07738 1.75398 -0.189795 69 63 65
-0.362175 2.06739 -1.05768 10 5 12
1.23407 1.53292 -0.257804 84 75 78
1.23556 1.53214 -0.257296 85 74 78
1.07982 1.7906 -0.161054 108 95 104
1.08282 1.79383 -0.161751 109 96 105
-0.363969 2.07185 -1.05859 11 4 12
1.08202 1.78832 -0.161959 88 76 78
-0.0698116 1.88801 -0.98413 56 48 61
-1.2494 0.485363 0.648004 34 32 82
-1.39893 0.631907 0.422098 48 44 71
-0.00569748 -0.647729 2.11404 83 84 104
-0.00510367 -0.632661 2.10724 94 91 110
-0.00577979 -0.611072 2.15794 34 34 44
-1.33779 0.430451 0.603808 31 36 55
-1.45154 1.10593 0.365523 105 98 116
-1.37985 1.10991 0.476142 109 110 154
0.465492 2.15303 -0.570074 82 77 83
0.449823 1.97247 -0.995103 31 26 33
0.347773 1.92695 -1.06953 26 20 30
0.342101 1.92325 -1.06675 28 22 32
0.45168 2.15986 -0.556477 42 37 43
0.378509 1.96682 -1.10325 21 16 23
0.493834 2.13281 -0.608662 47 42 48
0.514619 2.20152 -0.651188 45 40 46
0.557379 2.04807 -0.973426 62 54 67
0.455958 2.17464 -0.5858 46 45 51
0.562284 2.05139 -1.05059 28 21 29
0.590624 2.0692 -1.11511 32 26 36
0.597996 2.05581 -1.15451 44 39 46
0.597973 2.0703 -1.13193 45 42 51
-0.132961 1.95464 -1.0538 18 13 19
-0.203339 1.94096 -1.05902 16 11 18
-0.425037 2.13914 -0.610476 41 33 44
-1.36167 2.16395 -0.173118 22 21 27
-0.367183 2.11794 -0.912454 27 19 30
-1.38183 1.10417 0.482149 121 116 148
-1.38768 1.10787 0.485462 118 114 149
-1.46087 1.08393 0.448521 39 47 58
-1.45081 1.097 0.513396 162 149 169
-1.46351 1.07547 0.428829 139 125 151
-1.43798 1.09881 0.499853 189 136 164
-1.41376 1.12114 0.543094 95 89 99
-0.345912 2.0543 -0.320028 66 60 70
-1.34549 0.72994 0.628939 13 10 53
-1.35743 0.631551 0.573132 60 55 122
-1.19814 0.228098 0.828903 148 141 174
-1.22977 0.461159 0.828113 31 30 90
-1.1595 0.644855 1.11861 149 140 159
-1.17123 0.860307 0.967954 146 141 164
-1.44682 1.02929 0.609664 64 56 43
-1.29581 0.540366 0.727257 26 25 95
-1.54895 0.981685 0.478688 41 8 1
-1.36464 0.639757 0.769281 10 9 41
-1.3206 0.629337 0.736717 37 34 103
-1.52184 1.02583 0.437673 115 102 119
-1.43402 1.06332 0.562996 121 108 92
-1.27621 0.413478 0.624531 110 110 144
-1.12848 0.891639 0.971729 137 128 155
-1.42873 1.06083 0.560127 190 153 135
-1.43423 1.05905 0.558455 181 141 131
-1.34549 0.681483 0.549022 9 10 56
-1.27176 0.950935 0.771521 63 59 73
-1.32899 0.382258 0.587981 185 177 201
-1.13425 0.888302 0.975732 146 137 164
-1.51267 1.01892 0.435944 115 99 112
-1.38239 0.501859 0.399771 174 164 189
-1.45359 1.1208 0.506286 128 45 39
-1.47722 1.08295 0.429142 131 119 143
-1.34946 1.06246 0.452402 136 47 33
-1.4863 1.21993 0.400701 50 49 57
-1.45149 1.07065 0.420847 133 121 143
-1.50208 1.22652 0.406226 50 49 57
-1.47948 1.08069 0.409174 80 73 91
-1.43489 1.10401 0.502947 129 49 42
-1.89413 -0.373158 0.44138 29 26 35
-1.23596 0.441577 0.906905 27 24 81
-1.20535 0.536116 0.838188 47 43 94
-1.40191 -0.389234 0.722188 117 110 128
-1.22537 0.441168 0.89505 13 13 65
-1.24653 0.458235 0.832376 28 25 82
-1.38221 -0.487532 0.64578 114 110 135
-1.38638 -0.488002 0.649593 96 97 118
-1.24763 0.456511 0.843345 33 29 88
-1.25978 0.508795 0.844941 37 33 84
1.3648 1.32364 0.0195292 34 31 38
1.35316 1.31541 0.0171667 34 31 38
1.39322 1.34153 0.00839285 39 38 46
1.34205 1.30633 0.0243993 34 31 38
1.34371 1.36388 0.0222759 97 92 99
1.20436 1.52164 -0.2129 122 106 109
1.3211 1.34598 0.0257523 87 82 88
1.17464 1.68409 -0.253717 105 95 96
1.41713 0.301821 -0.650939 127 115 127
1.40218 0.302988 -0.642268 104 99 119
1.12927 1.7353 -0.34025 128 112 122
1.40556 0.305477 -0.648142 106 102 119
1.43477 0.310372 -0.666296 106 102 119
1.39852 0.307433 -0.64676 114 108 122
1.15377 1.74754 -0.374642 132 116 126
1.41292 0.316813 -0.657435 62 54 65
1.14265 1.73896 -0.371142 132 116 126
1.17411 1.6955 -0.282406 62 53 54
1.23362 1.50428 -0.246381 87 75 75
1.1185 1.47727 -0.0548533 84 72 72
1.05603 1.5636 -0.0241485 51 43 41
1.05415 1.63801 0.0304782 77 74 83
1.06956 1.54587 -0.0354623 110 93 99
1.07475 1.53968 -0.0387241 105 91 91
1.06251 1.56686 -0.0264947 56 50 50
1.06148 1.56645 -0.0297465 70 61 62
1.07487 1.54023 -0.0393515 100 86 85
1.04648 1.65929 0.0350002 109 97 107
1.04065 1.63073 0.0227492 71 65 69
1.06142 1.57329 -0.035669 79 69 68
1.05677 1.58339 -0.0347354 103 92 98
1.05589 1.59467 -0.0267931 61 52 53
1.07813 1.60028 -0.0346463 97 87 88
1.10405 1.50021 0.0395553 96 89 97
1.06522 1.6061 0.064152 78 71 78
-0.175322 1.38804 -1.41655 67 59 74
0.615107 2.04217 -0.543006 130 116 129
0.508099 2.09065 -0.470855 92 85 92
-0.109714 1.37796 -1.46327 64 56 71
0.506656 2.05437 -0.511285 70 64 68
0.55676 1.45848 -1.51495 61 53 66
0.586257 1.41633 -1.60928 50 42 55
0.518628 1.4306 -1.46288 55 49 61
0.490488 2.1026 -0.476413 87 80 88
0.574741 1.48755 -1.5201 49 41 52
-0.40482 1.38188 -1.50869 26 21 28
-0.399624 1.38338 -1.51196 20 15 22
0.590666 1.41079 -1.63101 8 2 12
0.552482 1.7204 -1.3378 49 41 54
-0.396624 1.39114 -1.58612 23 16 24
-1.41887 1.08741 0.513956 167 151 178
-1.40514 1.10225 0.508423 113 111 160
-1.42511 1.12009 0.514805 78 80 131
-1.33239 1.11489 0.46578 38 37 55
-1.42275 1.08897 0.513892 185 167 193
-1.31893 1.10263 0.43213 98 89 106
-1.32127 1.10563 0.433096 106 97 116
-1.32197 1.10917 0.450727 84 75 94
-1.32501 1.11356 0.451269 112 103 124
-1.44592 1.05866 0.447495 70 69 85
-1.46119 1.07375 0.45058 28 47 64
-1.38006 1.08836 0.527114 131 118 135
-1.4732 1.04451 0.352833 106 58 54
-1.39027 1.10012 0.529047 135 125 149
-1.42216 1.1316 0.542941 135 125 149
-1.43364 1.09748 0.509065 129 77 90
1.3016 1.69937 -0.454669 161 140 147
0.974653 1.4133 -0.3314 66 57 60
1.27632 1.72383 -0.444098 70 61 64
1.2056 1.68973 -0.403084 79 68 66
1.21985 1.701 -0.416527 76 65 69
1.17084 1.65555 -0.388453 80 70 71
1.52738 1.5508 -0.364345 77 72 79
1.22243 1.70177 -0.439829 123 108 115
1.21515 1.69973 -0.43508 131 114 122
1.28216 1.68339 -0.484401 137 120 130
1.19667 1.68166 -0.433174 130 113 119
1.14658 1.75295 -0.344044 135 118 126
1.33573 1.74588 -0.529345 127 111 121
1.21963 1.68361 -0.478178 127 110 120
1.2797 1.63277 -0.494762 65 55 63
1.30443 1.76905 -0.517831 125 108 116
1.20354 1.73923 -0.461833 121 110 118
1.21571 1.67742 -0.486697 121 104 112
1.23968 1.70744 -0.490126 121 104 112
1.3919 1.65353 -0.536647 66 60 60
1.29479 1.56806 -0.492129 71 65 67
1.38838 1.65486 -0.549571 70 64 66
1.44995 1.70116 -0.575549 84 74 75
1.37413 1.67667 -0.506611 58 52 54
1.409 1.66059 -0.563443 82 72 73
1.38833 1.67382 -0.508556 60 51 52
1.30578 1.58525 -0.459177 59 50 53
1.35193 1.63718 -0.485949 60 51 52
1.3664 1.67775 -0.503235 54 48 50
1.41768 1.67002 -0.584107 134 117 123
1.4641 1.62911 -0.533699 99 84 77
1.49145 1.73716 -0.63058 121 105 108
1.45136 1.69226 -0.609029 109 95 95
1.31598 1.66798 -0.516045 140 123 131
1.50733 1.75915 -0.642 112 98 98
1.44822 1.69185 -0.606804 121 105 108
1.5814 1.72646 -0.583218 94 81 73
0.526036 1.96908 -1.07601 53 47 57
-0.403542 2.1908 -0.879262 19 14 21
-1.389 1.11235 0.479096 66 59 93
-1.3811 1.1129 0.476109 117 117 153
-1.51892 1.03248 0.338386 58 53 60
-1.40944 1.14554 0.558575 34 31 38
-1.41908 1.1045 0.482052 159 109 134
-1.45746 1.07905 0.418509 140 127 155
-1.38612 1.11446 0.47525 42 40 80
-1.47504 1.07372 0.417661 131 119 139
-1.51676 1.03448 0.334374 51 46 52
-1.39683 1.09408 0.475652 130 53 45
-1.37302 0.963872 0.887358 34 32 37
-1.23509 1.07641 0.684597 61 55 55
-1.24071 1.07291 0.686909 83 73 74
-1.24075 1.07323 0.687568 83 73 74
-1.24451 1.08079 0.683145 95 88 96
-1.23813 1.07566 0.681163 95 88 96
-1.24039 1.07064 0.68004 23 20 27
-1.23512 1.07164 0.678224 56 51 55
-1.24699 1.07505 0.681156 23 22 28
-1.25097 1.07509 0.680757 25 24 32
-1.33299 1.07229 0.483071 122 113 140
-1.36919 1.07432 0.515305 73 65 89
-1.33283 1.08723 0.461469 123 113 137
-1.38028 1.04902 0.733755 79 71 86
-1.33145 1.08105 0.481627 40 24 34
-1.33645 1.08283 0.487337 46 38 59
-1.36044 1.07645 0.696093 71 67 81
-1.34369 1.08155 0.499078 100 92 115
-1.51111 0.991904 0.426894 92 28 16
-1.27877 1.04202 0.4851 100 92 115
-1.34794 1.08825 0.501591 99 91 114
-1.31206 1.09962 0.435175 110 103 121
-1.2673 1.0643 0.45299 38 37 55
-1.29936 1.08862 0.460474 82 78 95
-1.45093 1.08377 0.408441 137 125 149
-1.44741 1.0855 0.402173 141 129 153
-1.44641 1.08891 0.396739 144 132 156
-1.44691 1.09476 0.392231 140 128 150
-1.43698 1.10265 0.376654 122 104 126
-1.5064 0.991594 0.368747 58 56 61
-1.357 0.697412 0.621224 48 47 113
-1.36694 0.687571 0.567631 7 8 75
-1.45216 0.583023 0.297155 76 73 82
-1.34706 1.09484 0.484919 36 25 31
-1.32502 1.14436 0.469996 96 84 104
-1.29127 1.06124 0.453577 37 27 35
-1.34294 1.13952 0.486907 55 47 60
-1.35187 1.10384 0.489208 32 24 35
-1.42899 1.12596 0.532815 118 112 138
-1.64819 0.208662 0.117827 165 152 161
-1.62906 0.213242 0.114096 130 134 159
-1.29082 1.08667 0.461821 40 37 58
-1.64754 0.21702 0.122743 171 166 188
-1.34546 1.11339 0.497511 45 30 35
-1.31793 1.18831 0.478376 115 105 132
-1.31536 1.18844 0.477176 116 110 136
-1.31683 1.19202 0.479342 45 43 56
-1.31661 1.19064 0.479612 120 114 142
-1.33893 1.10963 0.495952 45 30 35
-1.3539 1.1176 0.50197 42 30 40
-1.66297 0.226541 0.132085 84 89 109
-1.34346 1.11206 0.500543 42 30 40
-1.31628 1.19849 0.476536 47 46 54
-1.1926 0.230056 0.835256 111 104 120
-1.4085 0.644756 0.400236 54 50 77
-1.4125 0.65084 0.392892 51 48 77
-1.4254 0.672278 0.36688 48 48 74
-1.23474 0.444518 0.910501 48 43 97
-1.22732 0.446805 0.888384 10 10 46
-1.20085 0.638163 1.13283 55 53 64
-1.20639 0.635584 1.14075 55 53 64
-1.20076 0.640961 1.13339 45 42 51
-1.18804 0.92645 0.830377 46 47 75
-1.26018 0.905679 0.853047 171 160 177
-0.51163 2.08646 -0.380386 81 76 83
-0.512229 2.09225 -0.381758 70 68 79
-0.18978 1.94366 -1.0484 23 18 24
-0.53715 2.09389 -0.390627 65 62 71
-0.499824 2.16506 -0.539153 109 96 114
-0.50394 2.17082 -0.5389 112 100 122
0.54635 2.1008 -0.688625 69 64 71
0.559529 1.86095 -1.25954 42 35 43
0.454433 2.14811 -0.567868 60 55 61
0.423895 1.95377 -0.98275 40 32 43
0.576532 1.87828 -1.28186 39 34 41
0.495155 2.12005 -0.625608 67 62 69
0.502572 2.14552 -0.610782 27 22 28
0.13455 1.88132 -1.04659 44 34 43
0.595715 2.10547 -1.01882 63 55 68
0.573182 1.95954 -1.20169 35 30 37
0.530572 2.00445 -1.04925 61 55 67
0.580713 1.96931 -1.2093 46 39 47
0.532735 2.00515 -1.05393 50 42 53
0.541682 1.99727 -1.12395 55 44 58
0.52663 1.97171 -1.10714 52 44 55
0.577086 2.04358 -1.11725 53 45 56
0.580523 2.02618 -1.15844 43 36 44
0.595548 2.04297 -1.17213 49 41 52
-0.223866 1.97641 -0.997804 37 30 38
-0.224505 1.97873 -0.999772 37 30 38
-0.104066 2.17183 -0.556554 28 26 31
-0.319637 2.12895 -0.596506 21 15 25
0.935447 2.49237 -1.04483 25 20 26
0.720631 2.25722 -0.960339 11 6 13
-1.39838 1.16549 0.420412 100 94 120
-1.34222 1.20783 0.460936 46 44 55
-1.30534 1.1763 0.470582 85 79 93
-1.39873 1.20277 0.435285 48 39 44
-0.481824 2.07224 -0.368899 22 17 24
-0.56789 2.10379 -0.402729 70 67 78
-0.49654 2.18552 -0.551614 109 101 124
-0.376588 2.12477 -1.06628 22 16 26
-0.827024 2.24671 -0.35486 9 4 11
-0.825834 2.24115 -0.352842 7 2 9
-1.47368 1.01676 0.607879 16 7 8
-1.40262 1.09776 0.479541 132 45 28
-1.51707 1.14371 0.515376 55 46 51
-1.47578 1.21933 0.411451 43 42 48
-0.44531 1.39269 -1.49169 18 11 18
-0.445587 1.39499 -1.50064 17 12 19
-0.446343 1.41237 -1.6177 24 23 31
-0.38691 2.16364 -0.894849 29 21 32
-0.71609 2.14267 -0.459674 42 36 40
-0.715467 2.13656 -0.456907 71 65 75
-0.859271 2.27669 -0.390342 21 20 25
-0.377168 2.06772 -0.332977 49 44 51
-0.349903 2.04297 -0.882526 36 26 37
-0.287477 2.14193 -0.60418 36 29 37
-0.318338 2.11073 -0.58814 20 15 22
-1.65902 1.7479 0.299701 29 24 30
-0.554065 2.09953 -0.399247 70 67 78
-0.637346 2.11663 -0.427294 55 54 62
-0.499057 2.15043 -0.538604 103 89 104
-0.22649 2.40236 -0.0375307 26 24 29
-1.46295 2.00639 0.0789077 26 23 30
-0.225779 2.40902 -0.0356584 44 39 45
-0.225991 2.40908 -0.0340487 44 39 45
-0.226832 2.4102 -0.0343898 44 39 45
-1.48957 2.03563 0.0806708 26 23 32
-1.35201 2.14323 -0.171124 24 21 30
-1.31306 2.08798 -0.15952 27 22 29
-1.09066 0.922405 0.978276 53 50 59
-1.71186 1.40553 0.430241 28 23 29
-1.39945 1.17258 0.428284 45 16 0
-1.44394 1.07978 0.385479 92 83 104
-1.42305 1.16224 0.418205 96 76 87
-1.47386 1.11571 0.377543 124 115 134
-1.55733 1.00263 0.404187 55 52 61
-1.55533 1.00732 0.397213 65 60 66
-1.52272 1.03023 0.34465 61 59 64
-1.49233 1.02744 0.320498 48 43 49
-1.34595 2.12542 -0.164367 24 21 28
-1.33447 1.20035 0.46035 57 54 63
-1.6312 0.300405 0.163553 157 150 168
-1.35647 1.14762 0.552679 113 101 125
-1.34792 1.21034 0.463709 38 37 45
-1.38949 1.02624 0.783687 17 12 18
-1.35586 1.15041 0.557437 99 92 110
-1.32617 1.13178 0.537456 85 77 92
-1.68476 0.307073 0.183516 76 74 96
-1.65073 0.314256 0.177484 76 74 96
-1.35644 1.13932 0.558204 89 81 94
-1.36088 1.13664 0.557841 89 81 94
-1.36362 1.14242 0.563879 71 65 75
-1.37721 1.06597 0.707474 95 88 104
-1.40061 1.0762 0.733593 39 34 41
-1.64001 0.330382 0.1834 145 137 150
-1.66913 0.324906 0.18795 24 29 51
-1.66599 0.334069 0.192585 35 40 62
-1.37385 1.13422 0.560758 65 60 67
-1.39302 1.12402 0.475983 42 41 75
-1.39209 1.0574 0.720442 58 55 66
-1.38984 1.13879 0.457605 178 147 163
-1.37903 1.10055 0.478126 78 70 107
-1.36875 1.12967 0.436775 138 83 76
-1.42296 1.12163 0.51242 84 80 113
-1.37364 1.09287 0.489037 78 75 106
-1.39904 1.05189 0.729099 82 78 93
-1.30631 0.616742 0.740454 18 17 95
-1.36036 0.783071 0.681794 50 49 106
-1.35703 0.745526 0.654302 39 36 105
-1.36251 0.81765 0.681692 16 17 82
-1.42102 0.76937 0.467128 25 23 73
-1.43249 0.650211 0.336094 34 33 41
-1.47192 1.08796 0.350681 87 85 106
-1.49429 1.0357 0.496786 131 120 92
-1.50028 1.02355 0.47042 133 117 83
-1.50703 1.02545 0.466589 149 82 73
-1.24799 0.59531 0.9554 31 29 92
-1.2301 0.653039 1.156 92 86 98
-1.28839 0.636681 0.798973 9 7 44
-1.28997 0.595025 0.758999 28 28 102
-1.3029 0.693062 0.798372 33 31 96
-1.29697 0.494494 0.689256 38 34 93
0.128116 -0.839077 2.00493 10 9 15
-1.2198 0.217879 0.849323 15 12 19
0.135944 -0.687855 2.09639 35 33 38
-0.00530969 -0.67006 2.07986 115 114 130
-0.00518386 -0.669305 2.09606 91 88 105
-0.000648697 -0.0400441 2.46346 14 13 19
-1.0622 0.863182 1.94783 38 37 45
-1.36541 0.922398 1.81794 24 26 49
-1.2472 0.949859 1.91946 42 40 51
-1.39687 0.918302 1.86333 54 53 69
-1.26338 0.730347 2.23736 65 62 69
-1.0632 0.829578 2.21658 83 82 90
-1.06321 0.82909 2.21182 40 37 46
-1.49177 1.02983 0.573112 12 7 13
0.00124199 -0.118287 2.38069 35 30 34
0.00457093 -0.127095 2.42445 39 36 43
0.000893508 -0.12515 2.41255 38 37 45
-1.35784 0.71247 0.63237 12 10 31
-1.29549 0.497644 0.682904 36 31 97
-1.3189 0.581184 0.666068 51 47 108
-1.35199 0.703107 0.640136 9 8 42
-1.31787 0.57298 0.67088 25 27 104
-1.32267 0.585124 0.670656 54 53 119
-1.32086 0.585103 0.668515 59 57 122
-1.27693 0.414104 0.627056 118 124 186
-1.38234 0.718607 0.546762 40 43 98
-1.37037 0.638442 0.574912 59 57 122
-1.3751 0.701768 0.554668 2 3 93
-0.00225312 -0.120435 2.35007 27 26 34
-1.28568 0.93485 1.89071 45 43 65
-1.26898 0.928506 1.9241 58 53 75
-1.17385 0.872903 1.95463 54 55 75
-1.48714 0.989931 1.99147 41 40 54
-1.42226 0.945363 1.89478 40 39 53
-0.921801 0.789727 2.06254 38 35 42
-1.27384 0.747889 2.18239 33 32 40
-1.2748 0.751541 2.18876 43 41 52
-1.27432 0.744829 2.18215 45 44 52
-1.2833 0.752614 2.19887 47 46 54
-1.4132 0.762404 2.17495 48 47 63
-1.09824 0.846748 2.30682 38 36 41
0.00361774 0.476404 2.75481 28 26 31
-1.17852 0.909947 2.21652 57 54 63
-1.42578 1.00246 2.23061 85 84 102
-0.391236 0.833255 2.75736 37 35 46
-0.438819 0.850935 2.77928 69 66 73
-0.383173 0.828675 2.7492 73 66 74
-0.473705 0.854717 2.75672 59 52 59
-1.18725 1.01808 0.773069 114 101 119
-1.23002 1.00345 0.776817 122 115 131
-1.21884 0.989457 0.765053 102 91 107
-1.3052 0.673844 0.780335 38 33 99
-1.63101 -0.0455498 0.773222 26 24 29
-1.19854 0.977297 0.77339 78 76 98
-1.15208 1.0219 0.822677 176 161 182
-1.15126 1.01819 0.826929 161 143 155
-1.0905 0.964142 0.790843 175 158 174
-1.26068 0.528983 0.849523 11 10 44
-1.10275 0.972817 0.816897 168 159 180
-1.41798 1.11628 0.480473 140 83 92
-1.39429 1.15938 0.431028 74 38 26
-1.41466 1.13318 0.438846 116 104 118
-1.41827 1.10039 0.540632 40 31 34
-1.46056 1.11737 0.472739 35 52 62
-1.4299 1.1707 0.421703 100 86 101
-1.44965 1.10535 0.371136 118 108 132
-1.46311 1.04455 0.342257 108 59 55
-1.45132 1.10781 0.366524 94 91 108
-1.544 0.975357 0.432933 88 84 101
-1.30802 0.585255 0.72074 20 21 103
-1.29012 0.64203 0.833645 23 22 80
-1.40104 0.499647 0.405907 160 150 174
-1.21927 0.550912 0.994863 38 35 88
-1.66006 0.461715 0.264584 77 73 87
-1.34493 1.14139 0.427821 72 61 78
-1.36867 1.10306 0.469532 142 137 167
-1.40201 1.09642 0.508648 63 64 108
-1.39755 1.11735 0.477735 166 142 168
-1.46164 1.16653 0.492598 162 137 158
-1.40949 1.11018 0.476472 124 52 53
-1.41502 0.575705 0.287555 92 87 107
-1.41622 0.562631 0.306216 138 130 154
-1.40202 0.563322 0.298952 141 133 156
-1.39637 0.633546 0.41017 38 33 53
-1.40309 0.637145 0.413075 45 44 78
-1.40186 0.641095 0.40461 53 49 76
-1.52659 1.0241 0.353747 58 56 59
-1.49062 1.02218 0.324321 59 54 60
-0.361886 2.0871 -0.905793 17 10 18
-0.395457 2.15911 -0.995902 26 21 27
-1.34062 2.12503 -0.166768 25 20 27
-1.3501 1.09204 0.492308 47 42 64
-1.34481 1.08816 0.489525 47 42 64
-1.363 1.10773 0.495945 41 29 39
-1.34454 1.09234 0.493292 101 92 113
-1.40889 1.09669 0.52972 137 127 152
-1.4805 1.08144 0.426129 131 116 139
-1.39012 1.11185 0.481129 48 43 83
-1.38724 1.11644 0.477759 100 99 139
-1.42561 1.11182 0.490297 129 51 39
-1.36711 1.09243 0.474374 66 56 90
-1.39092 1.14079 0.570059 33 28 34
-1.34601 1.11257 0.43365 67 35 38
-1.42113 1.10816 0.489849 126 48 36
-1.34216 1.14967 0.485036 56 48 63
-1.40362 1.11875 0.542929 64 57 64
-1.39957 1.11439 0.540476 64 57 64
-1.41979 1.1453 0.550795 135 124 138
-1.48845 1.07778 0.421204 81 70 84
-1.37364 1.10734 0.471034 27 25 64
-0.742161 0.955359 -1.12889 108 99 116
-1.53798 1.18725 0.544685 134 68 70
-1.73412 0.402051 0.464743 27 24 33
-1.42435 1.15529 0.439467 153 82 86
-1.41501 1.09986 0.479069 176 127 157
-1.43639 1.0875 0.511652 145 132 142
-1.46516 1.0829 0.437488 25 43 55
-1.70254 0.505965 0.458661 23 20 29
-1.43297 1.11259 0.470454 130 111 131
-1.43028 1.17194 0.423059 101 87 102
-1.47208 1.05564 0.342238 93 25 4
-1.52489 0.97552 0.558074 43 37 37
-1.45537 1.07277 0.422436 130 120 147
-1.37907 1.11952 0.469211 127 123 156
-1.51469 1.03645 0.33079 60 55 62
-1.35139 1.11736 0.436558 59 39 51
-1.47053 1.07842 0.408159 130 117 135
0.66138 2.05492 -0.638317 126 110 123
0.476577 2.08354 -0.495837 107 95 107
0.65881 2.05152 -0.637744 124 110 123
0.542221 1.73365 -1.30883 45 37 48
0.602282 2.11588 -0.716093 89 79 88
0.685066 2.07847 -0.726056 96 82 79
0.508423 1.74197 -1.24581 52 44 57
0.521431 2.12738 -0.656261 68 62 72
0.621976 2.08766 -0.8087 70 65 72
-0.513137 2.0912 -0.383484 73 67 77
0.489849 2.14034 -0.606999 28 23 29
0.209445 1.89515 -1.05612 54 46 59
0.133844 1.88849 -1.05331 49 41 52
0.521416 2.01736 -0.984707 64 54 65
0.584318 1.97732 -1.21203 47 37 48
-0.328448 2.14165 -0.596588 37 29 40
-1.40329 1.10191 0.476457 127 52 46
-1.40067 1.12114 0.47906 163 140 168
-1.39489 1.12124 0.539868 120 109 123
-1.38249 1.12015 0.47125 111 102 129
-1.47637 1.08021 0.413313 136 124 144
-1.38816 1.13699 0.550697 38 32 42
-1.42109 1.12107 0.481452 124 54 52
-1.35457 1.13447 0.425931 93 80 89
-1.37564 1.1158 0.467062 116 113 144
-1.37137 1.10824 0.465997 111 102 129
-1.3228 1.14145 0.469989 95 83 103
-1.42864 1.1136 0.479219 163 118 147
-1.39258 1.1378 0.467348 26 20 54
-1.37619 1.12052 0.462137 26 20 54
-1.39844 1.1368 0.563532 130 126 141
-1.3932 1.12031 0.541617 88 82 92
-1.37122 1.11384 0.463528 45 38 69
-1.39715 1.13776 0.562254 120 114 124
-1.40014 1.12948 0.567786 128 118 129
-1.37055 1.12681 0.451476 147 139 162
-1.33174 1.11926 0.425774 75 63 83
-1.40369 1.12961 0.548613 81 73 84
-1.37771 1.12913 0.458521 139 127 149
-1.35095 0.935204 0.937834 22 17 23
-1.32064 1.08935 0.693456 132 121 138
-1.31172 1.07218 0.679299 96 93 112
-1.29856 1.06199 0.678369 121 116 136
-1.29053 1.05475 0.671215 105 98 114
-1.31012 1.06891 0.682234 38 36 50
-1.3835 1.03162 0.758931 101 98 115
-1.28103 1.04153 0.669962 31 29 42
-1.54472 0.97374 0.485395 48 23 26
-1.54078 0.983604 0.475519 49 20 12
-1.52662 1.0064 0.429344 88 22 0
-1.42462 1.05333 0.555847 184 149 129
-1.36079 1.06684 0.509437 76 70 84
-1.47275 1.08404 0.429383 142 129 155
-1.47801 1.04611 0.355271 108 61 55
-1.48553 1.07731 0.419852 84 77 95
-1.5004 1.02361 0.331431 62 60 65
-1.79513 1.15364 0.45455 6 1 7
-1.78372 1.15392 0.444569 9 7 10
-1.51089 1.03113 0.472535 138 102 76
-0.739989 0.955837 -1.12569 76 78 101
-1.29796 0.501524 0.702952 14 11 22
-1.30863 0.535173 0.664956 45 45 117
-1.37116 0.446935 0.490871 164 154 179
-1.46312 1.13893 0.363563 57 54 63
-1.4652 1.14403 0.365794 58 55 62
-1.46926 1.15247 0.369346 55 54 62
-1.48429 1.15916 0.362621 12 7 13
-1.73555 1.41613 0.380714 4 0 5
-1.43595 1.6759 0.286091 53 47 57
0.10496 1.94665 -0.151274 49 46 55
-0.736485 1.9658 0.16102 48 42 52
0.560841 2.04505 -0.373254 86 81 88
0.513006 1.99556 -0.390291 111 102 119
0.511691 2.02881 -0.432531 108 100 115
0.513501 2.03255 -0.43674 111 100 114
0.500939 2.02476 -0.442876 75 66 69
0.513297 2.05083 -0.466257 75 68 75
-0.132456 1.99585 -0.240206 41 38 45
0.511379 2.05346 -0.463344 66 61 67
0.509722 2.05677 -0.511098 72 66 70
0.507798 2.04302 -0.531108 86 75 79
0.497544 1.9605 -0.591872 107 96 110
0.593052 2.04915 -0.656757 121 107 120
0.570934 2.06105 -0.670583 128 115 124
0.563172 1.83588 -1.2924 49 41 52
0.556666 1.80319 -1.29165 38 32 42
0.557554 2.0884 -0.66152 116 102 115
0.558314 1.83081 -1.28666 53 45 56
0.552004 1.8234 -1.28036 49 41 52
0.580626 1.89527 -1.29523 52 44 57
0.558538 2.05994 -0.700738 76 66 74
0.556771 2.02017 -0.739683 113 99 112
0.435702 2.12757 -0.531401 70 67 74
0.527742 2.10032 -0.653253 78 71 78
0.128035 1.88239 -0.972312 58 52 64
-1.36309 1.07488 0.51083 127 115 135
-1.36024 1.07433 0.511127 126 114 134
-1.43594 1.05789 0.553167 178 116 127
-1.37066 1.08642 0.513025 124 114 138
-1.40613 1.11795 0.533861 133 125 148
-1.49226 1.0397 0.517437 66 54 40
-1.52048 1.01858 0.439698 108 96 116
-1.09035 0.917515 0.962088 57 51 61
-1.35716 0.755906 0.639383 10 9 27
-0.40123 1.37972 -1.50659 23 18 25
-0.389123 1.38573 -1.58377 60 50 59
-0.394759 1.39699 -1.59907 24 17 25
-0.390847 1.3917 -1.59984 41 36 43
-0.207656 1.95424 -1.08112 36 28 39
-0.499506 2.16327 -0.529822 105 97 121
-0.490383 2.17344 -0.565874 128 101 108
-1.35815 0.613073 0.578354 19 18 84
1.00311 2.0818 -0.426606 50 45 49
1.06005 2.03578 -0.390016 36 34 39
1.06485 2.04962 -0.396584 40 35 39
0.844261 2.01592 -0.517974 115 102 112
0.619476 2.04912 -0.546919 132 116 126
0.891948 2.09538 -0.492362 62 54 52
-0.502763 2.14698 -0.534106 91 79 91
0.906318 2.0639 -0.433749 72 67 74
0.80769 2.06874 -0.428322 21 19 24
0.84432 2.11502 -0.44315 27 22 26
0.908391 2.06887 -0.431602 68 65 74
0.820285 2.08156 -0.430456 26 21 25
0.800193 2.04066 -0.549789 74 65 68
0.888871 2.04675 -0.466705 98 87 93
0.907364 2.06989 -0.474229 104 92 102
0.722922 2.03703 -0.603532 83 73 74
1.41536 1.84886 -0.832865 65 57 55
0.728867 2.04337 -0.60628 87 76 80
0.712556 2.03537 -0.616335 79 70 73
0.738993 2.06482 -0.616166 79 70 73
1.15076 1.93834 -0.719254 104 91 100
-1.32589 1.10161 0.460892 38 35 54
-1.3262 1.10093 0.453465 113 105 128
-1.52513 1.01628 0.359287 62 55 62
-1.34818 1.09693 0.452557 117 111 139
-1.46181 1.07722 0.450129 22 44 58
-1.4616 1.07179 0.433165 117 108 129
-1.37449 1.08123 0.485323 98 88 123
-1.46524 1.08374 0.453082 27 43 56
-1.44703 1.06626 0.447236 25 43 57
-1.438 1.08367 0.511936 142 129 139
-1.37497 1.08416 0.483931 93 85 122
-1.39426 1.10667 0.531109 129 121 145
-1.39037 1.11015 0.487017 118 114 149
-1.44886 1.09163 0.515115 129 117 121
-1.53257 1.16986 0.534852 177 163 186
-1.45736 1.07225 0.431923 102 93 114
-1.47069 1.04758 0.345083 104 55 50
-1.37537 1.08703 0.482505 94 84 121
-0.488389 2.18335 -0.581371 117 91 92
0.339554 1.46425 -1.90279 23 21 26
-1.34852 2.39476 -0.407083 0 0 2
-1.36065 0.944254 0.928748 22 19 26
-1.34915 0.946948 0.871238 107 99 122
-1.26215 1.07643 0.687313 92 90 111
-1.28249 1.08601 0.694593 23 22 36
-1.43551 0.993513 0.549561 12 7 11
-1.27674 1.07679 0.674872 56 56 68
-1.4419 0.998606 0.552423 13 8 14
-1.29202 1.07983 0.674595 86 84 105
-1.40383 1.03333 0.793118 10 8 13
-1.29647 1.08112 0.676952 85 82 101
-1.18291 0.927572 0.884954 58 71 123
-1.45878 1.10789 0.364923 50 46 60
-0.742961 0.972504 -1.12162 101 96 116
-0.740062 0.985063 -1.10434 66 62 76
-0.739846 1.02219 -1.08835 87 83 100
-0.743306 1.03202 -1.09041 77 74 93
-1.43336 1.11316 0.49303 129 51 47
-1.50561 1.03589 0.589123 53 42 46
-0.736406 0.958496 -1.11073 77 79 100
-0.741695 0.954855 -1.12826 105 93 113
-0.742769 0.944908 -1.13598 85 80 100
-1.45816 1.07214 0.450007 44 55 73
-1.4065 1.14374 0.428351 140 76 77
-1.55155 0.969313 0.494308 47 21 22
-1.51856 1.01038 0.436547 88 31 14
-1.60328 0.919097 0.530207 23 21 26
-1.42798 1.17089 0.420906 108 99 118
-1.51743 1.00555 0.364822 66 61 68
-1.66264 1.71128 0.338287 13 8 14
-1.40937 0.689062 0.425175 28 29 109
-1.41543 0.664775 0.360813 52 48 71
-1.42078 0.768346 0.463393 22 22 74
-1.41342 0.829978 0.520031 19 17 64
-1.65178 0.348426 0.196477 88 90 113
-1.66176 0.359647 0.206197 108 108 132
-1.4359 1.04361 0.58564 129 112 96
-1.39842 1.16296 0.451724 43 40 67
-1.4469 1.0452 0.624723 73 64 49
-1.37456 1.15495 0.43957 70 59 75
-0.0250926 1.97432 -0.195372 39 32 40
-1.21355 1.63548 0.976719 22 19 28
-0.0261795 1.9748 -0.194124 72 69 80
-0.0245487 1.98286 -0.195178 72 69 80
-0.0656772 1.99087 -0.213951 47 45 56
-0.0636628 1.9981 -0.215809 35 33 44
-0.0661087 1.98532 -0.215945 59 54 60
-0.0648477 1.98414 -0.210182 51 48 59
-0.0669861 1.98832 -0.213385 62 59 70
-0.088504 1.99611 -0.220403 62 60 71
-0.0879362 1.99603 -0.219988 62 60 71
-0.0987242 1.99708 -0.224266 71 65 79
-0.0941911 1.98094 -0.218753 46 43 52
-0.100664 1.99429 -0.223778 80 72 83
-0.101876 1.97865 -0.220162 80 72 83
-0.101108 1.99808 -0.224168 80 72 83
-0.119095 2.00411 -0.232267 44 41 50
-0.120861 2.00338 -0.23109 47 45 56
-0.134379 2.00745 -0.237915 63 60 69
-0.134947 2.00502 -0.239094 54 51 58
-0.152237 1.99454 -0.240198 79 71 86
-0.147095 2.00043 -0.239827 79 71 86
-0.15068 1.99299 -0.24139 53 46 53
-0.151462 2.00515 -0.244227 79 71 86
-1.36623 1.61049 0.34185 62 54 67
-0.154004 2.00076 -0.241994 58 53 59
-0.247395 2.03251 -0.280428 56 51 58
-0.247784 2.03068 -0.279661 56 51 58
-0.346973 2.0521 -0.319629 50 47 54
-1.4464 0.568347 0.304388 83 80 89
-1.39778 0.632615 0.417015 47 47 81
-1.40228 0.636301 0.412938 50 46 79
-1.40472 0.641454 0.407378 52 49 76
-1.44023 0.58153 0.291056 36 33 42
-1.40038 0.682343 0.427593 18 17 74
-1.40942 0.686322 0.428049 32 34 111
-1.42358 0.662637 0.37571 57 54 85
-1.42542 0.662389 0.376668 44 43 74
-1.41384 0.69777 0.408937 16 15 85
-1.42755 0.668895 0.362228 47 46 77
-1.64008 0.215302 0.118691 147 148 176
-1.27635 0.411717 0.567212 128 118 142
-1.36522 0.64244 0.578318 25 27 88
-1.28998 0.640078 0.830223 22 23 77
-1.26616 0.495285 0.797219 23 22 82
-1.2597 0.469284 0.793069 23 22 88
-1.28269 0.584538 0.789045 25 20 84
-1.42262 0.0223484 0.974522 57 59 71
-1.34723 0.147696 0.977073 67 61 71
-1.49374 0.875042 0.927997 9 7 12
-1.37419 0.366097 1.12945 38 33 39
-1.31898 0.264519 1.01171 44 42 47
-1.51394 0.875723 0.941464 8 6 11
-1.24886 0.20934 0.872848 13 10 19
-1.65684 0.447656 0.255011 68 67 81
-1.39689 0.600398 1.33514 12 5 12
-1.40263 0.606358 1.34444 9 3 13
-1.28892 0.594015 1.23098 93 87 97
-1.52011 -0.194975 0.754982 25 24 30
-1.2195 0.429593 0.892152 34 29 87
-1.41912 0.574244 0.290879 95 89 101
-1.41574 -0.252098 0.76543 27 26 34
-1.50886 0.99384 0.425174 79 32 24
-1.51824 -0.194297 0.753429 26 23 32
-1.65184 -0.124303 -0.066603 139 125 138
-1.39467 -0.401235 0.705675 115 117 140
-1.52652 -0.41693 0.828918 17 20 35
-1.39439 -0.346428 0.741484 117 111 125
-1.39568 -0.323447 0.754256 125 122 141
-1.21205 0.709358 1.14997 83 81 94
-1.21076 0.70804 1.16895 73 71 84
-1.16097 0.708789 1.16539 97 94 115
-1.30137 0.411595 0.584053 123 119 142
-1.29005 0.437442 0.55752 45 42 51
-1.42507 0.672347 0.365939 53 50 77
-1.21591 0.63885 1.20704 67 61 73
-1.22696 0.654875 1.15299 86 80 90
-1.47142 1.0797 0.433067 138 126 148
-1.21486 0.638036 1.19528 51 46 53
-1.43056 1.06009 0.559632 180 152 131
-1.15251 1.02552 0.771223 122 115 146
-1.25914 0.50706 0.858909 11 9 46
-1.27588 0.539218 0.87188 12 10 24
-1.26688 0.508437 0.868157 14 11 56
-1.28058 0.518359 0.905906 52 45 96
-1.2527 0.489853 0.897385 42 38 99
-1.43424 0.578204 0.291817 67 63 77
-1.29905 0.4393 0.592182 59 57 62
-1.35931 0.685956 0.595827 27 25 98
-1.36689 0.725269 0.596915 11 9 33
-1.36048 0.699368 0.594424 8 8 60
-1.49589 -0.776219 0.603715 66 64 77
-1.447 -0.744384 0.565827 66 64 77
-1.39304 -0.70638 0.535669 72 70 84
-1.4896 -0.708236 0.625113 93 94 115
-1.47039 -0.705948 0.608293 89 90 111
-1.3978 -0.654446 0.569552 113 104 121
-1.39593 -0.65186 0.569586 111 104 120
-1.39035 -0.0198669 0.922611 93 89 104
-1.39308 -0.058146 0.904983 85 81 95
-1.41051 -0.39656 0.727383 121 123 148
-1.46281 -0.0803558 0.839314 26 23 30
-1.41219 -0.647163 0.587265 122 116 142
-1.39288 -0.688249 0.547428 105 100 120
-1.52572 -0.0934342 0.803007 26 25 33
-1.61441 0.571616 0.313602 33 32 40
-1.63753 0.319344 0.17815 119 122 141
-1.72575 0.436626 0.461953 25 24 32
-1.72369 0.352719 0.415905 23 22 28
-1.65281 0.0560494 0.0332826 119 117 138
-1.6477 0.0415106 0.0219618 93 90 121
-1.65778 -0.0128632 -0.00945608 45 50 69
-1.198 0.303397 0.912201 3 2 7
-1.18814 0.23803 0.842961 93 91 104
-1.52023 0.99523 0.430142 93 26 9
-1.54931 0.970865 0.556068 45 42 49
-1.328 0.357056 1.07807 42 40 45
-1.37548 0.338943 1.11115 42 36 40
-1.38051 0.134154 1.00326 65 59 69
-1.38349 0.104292 0.985427 72 67 74
-1.39366 0.0992213 0.992698 63 61 72
-1.39568 -0.0437611 0.91624 43 38 45
-1.41308 -0.0334045 0.932445 72 71 87
-1.3874 -0.0740866 0.886635 83 82 98
-1.39488 -0.0839731 0.88448 30 32 44
-1.57394 0.922085 0.530099 52 37 42
-1.19683 0.301414 0.886359 57 54 63
-1.28049 0.312501 0.69518 209 200 221
-1.29855 0.541113 0.727902 21 23 98
-1.29856 0.562204 0.732665 33 33 105
-1.28461 0.322307 0.681332 170 162 183
-1.26737 0.495416 0.796852 25 24 92
-1.29978 0.423804 0.561512 161 158 179
-1.42939 1.08895 0.501156 174 160 173
-1.46113 1.09624 0.516551 174 160 173
-1.25532 0.431336 0.549258 23 29 43
-1.30873 0.427929 0.574922 16 18 30
-1.5215 0.991832 0.395692 129 119 146
-1.30906 0.419403 0.579861 32 34 49
-1.5215 1.00604 0.424748 90 22 1
-1.33614 0.411533 0.54291 120 110 137
-1.33354 0.388647 0.57999 200 190 215
-1.1498 0.66919 1.1483 85 83 104
-1.18119 0.663727 1.18937 112 109 140
-1.28532 0.453981 0.577622 40 35 39
-1.46772 1.07656 0.426149 137 125 149
-1.47426 1.077 0.42859 139 127 149
-1.25185 0.662681 1.16653 43 38 44
-1.24959 0.663904 1.15387 90 82 93
-1.37489 0.69256 0.552926 25 27 101
-1.34536 0.744859 0.688706 42 41 98
-1.36198 0.484575 0.423073 180 170 194
-1.27688 0.311173 0.698513 206 196 221
-1.43287 1.09788 0.390137 87 82 102
-1.1966 0.604174 1.1109 110 106 123
-1.19438 0.602545 1.108 131 127 144
-1.43904 1.10508 0.384973 74 44 52
-1.27003 0.507834 0.798587 13 11 51
-1.19574 0.615134 1.12913 117 110 128
-1.20397 0.566981 1.04057 20 18 55
-1.22257 0.583031 1.0072 22 23 79
-1.18789 0.581234 0.976624 19 20 74
-1.22809 0.558545 0.990786 9 9 43
-1.22787 0.519863 0.971087 30 29 87
-1.46957 1.07032 0.342144 97 84 101
-1.40642 1.13428 0.461113 155 119 131
-1.47181 1.0536 0.338318 84 25 9
-1.40115 1.12999 0.461276 142 119 137
-1.48015 1.03436 0.316066 108 103 123
-1.34378 1.10034 0.430121 170 137 156
-1.32954 1.06656 0.495247 123 115 138
-1.46027 1.10675 0.360898 94 89 111
-1.3643 0.674254 0.573179 14 13 89
-1.36769 0.35026 1.11141 49 46 53
-1.35966 0.239801 1.03943 54 48 58
-1.41566 0.661533 0.372488 59 56 87
-1.51875 1.00824 0.433292 89 27 6
-1.51737 1.01648 0.439579 112 99 117
-1.51946 1.01041 0.436475 84 45 40
-1.51398 1.04048 0.453869 108 97 113
-1.53984 0.969182 0.46157 49 19 19
-1.44762 0.957387 0.892309 51 48 55
-0.00764671 -0.598211 2.11529 43 43 55
0.00438981 -0.127663 2.42465 35 34 42
-1.158 -1.05515 1.24959 79 82 101
-1.14192 -1.03205 1.23395 95 94 112
-1.16239 -1.06167 1.25264 86 78 91
-1.19962 -1.07738 1.2891 25 25 35
-1.16774 -1.04249 1.24798 19 22 31
-1.17671 -1.04774 1.25839 20 19 25
-1.17195 -1.07183 1.26952 93 89 104
-1.15916 -1.0577 1.25002 93 89 104
-1.19525 -1.09931 1.2966 76 72 86
-1.1584 -1.03916 1.24101 19 18 23
-1.17267 -1.07602 1.27161 76 66 77
-1.17067 -1.03758 1.2518 23 21 24
-1.19489 -1.03793 1.27206 71 62 67
-1.18867 -1.02621 1.2595 71 62 67
-1.2195 -1.05292 1.28667 63 57 61
-1.20563 -1.04242 1.27987 68 61 68
-1.23034 -1.03792 1.27365 67 62 68
-1.80303 -1.65876 2.08708 55 52 59
-1.65672 0.289045 0.166072 132 129 158
-1.42172 0.552843 0.324892 145 137 161
-1.65569 0.346876 0.197417 138 130 145
-1.38589 0.678478 0.47862 51 48 115
-1.38934 0.699788 0.490922 37 38 95
-1.52279 0.975931 0.555958 52 48 47
-1.22877 0.449723 0.513559 80 78 92
-1.43051 1.14768 0.462977 156 132 154
-1.47726 1.08039 0.540196 62 60 63
-1.41554 1.12508 0.460176 165 112 140
-1.38202 1.13233 0.436172 156 79 61
-1.36139 1.07583 0.566144 58 47 43
-1.41521 1.12988 0.456302 125 68 85
-1.41087 1.13798 0.449314 114 51 44
-1.39913 1.13504 0.445695 120 35 4
-1.39774 1.1335 0.447147 120 36 8
-1.42385 1.15124 0.587529 36 34 39
-1.30846 1.17918 0.474294 112 104 127
-1.4747 1.10065 0.356933 89 86 107
-1.41502 1.1292 0.449709 174 155 177
-1.42138 1.13934 0.447115 159 136 165
-1.40973 1.10898 0.576132 44 34 35
-1.42118 1.12459 0.586628 40 31 34
-1.35688 1.09644 0.535723 87 80 88
-1.45868 1.10771 0.360271 107 101 115
-1.27979 1.04178 0.42684 174 158 185
-1.43455 1.13437 0.586544 39 30 35
-1.36664 1.10702 0.539401 75 70 77
-1.4091 1.1425 0.432901 148 72 72
-1.39172 1.13043 0.561277 142 134 145
-1.41687 1.11849 0.574096 40 31 32
-1.42685 1.1181 0.576001 41 31 30
-1.4097 1.13974 0.434172 138 62 62
-1.32219 1.10948 0.433639 84 73 89
-1.42492 1.13106 0.548041 46 41 47
-1.41274 1.15604 0.422119 113 93 104
-1.41334 1.17116 0.422607 132 124 148
-1.44718 1.19989 0.428714 87 75 89
-1.40189 1.15366 0.419642 122 113 132
-1.46607 1.14072 0.552327 130 120 129
-1.45006 1.09485 0.514177 67 56 60
-1.4598 1.13606 0.550627 130 120 129
-1.4606 1.1351 0.5534 132 126 138
-1.47521 1.14431 0.557533 132 126 138
-1.47334 1.14441 0.556637 129 121 134
-1.47747 1.1117 0.516519 68 50 48
-1.46685 1.13086 0.555869 93 83 81
-1.4948 2.05038 0.074291 30 25 32
-1.34704 2.14014 -0.170552 26 21 28
-1.46001 1.10416 0.375645 135 126 145
-1.55572 1.0311 0.372027 63 58 64
-1.49803 1.0121 0.339772 61 59 64
-0.730003 1.21797 -0.954965 93 88 108
-0.364895 2.0861 -1.06898 12 2 10
-1.46156 1.07495 0.45022 28 45 61
-0.741831 0.944798 -1.13151 88 80 95
-1.48079 1.07421 0.422977 126 113 131
-0.741812 0.987383 -1.11205 66 64 78
-1.46545 1.08565 0.397396 130 121 140
-1.4514 1.09731 0.375661 83 74 93
-0.741789 1.02436 -1.09598 64 60 75
-1.41446 0.557283 0.315388 145 137 161
-1.6496 0.134299 0.0773002 153 142 158
-1.29295 0.986957 0.782114 78 74 88
-1.65748 0.157211 0.0919349 157 145 157
-1.63708 0.168459 0.09271 145 145 171
-1.67166 0.161109 0.0977314 71 74 105
-1.31299 1.10404 0.427262 102 93 112
-1.30859 1.10108 0.426095 116 108 131
-1.22846 0.242541 0.807454 197 189 212
-1.43226 1.11679 0.481286 170 121 150
-1.42045 1.10647 0.483785 123 59 73
-1.4191 1.09343 0.50355 154 84 92
-1.45589 1.11661 0.382271 86 68 80
-1.42463 1.09219 0.514023 178 159 187
-1.43695 1.11454 0.425116 52 64 78
-1.4217 1.08458 0.523231 150 140 151
-1.42402 1.06586 0.564822 122 108 97
-1.42787 1.08752 0.516486 182 167 190
-1.43961 1.06191 0.554762 180 120 130
-1.42617 1.08643 0.501007 185 170 191
-1.44155 1.09105 0.511193 137 124 133
-1.47108 1.10104 0.360295 102 96 124
-1.48029 1.14641 0.353179 44 41 50
-1.46812 1.09386 0.363541 113 107 135
-1.47953 1.14463 0.346707 26 25 30
-1.45141 1.02773 0.350892 90 22 1
-1.45906 0.992309 0.65001 10 5 1
-1.46087 1.09221 0.535315 87 60 49
-1.4838 1.08004 0.535059 96 68 54
-1.47213 1.07656 0.53134 89 71 69
-1.4717 1.01216 0.604383 20 5 8
-1.50085 1.02109 0.482165 120 118 77
-1.48674 1.02871 0.504961 105 93 71
-1.47953 1.11449 0.512985 70 61 56
-1.48463 1.07179 0.452216 108 96 118
-1.47854 0.960021 0.885088 27 25 30
-1.42727 1.09601 0.472212 50 41 44
-1.49359 1.03165 0.570863 49 34 27
-1.49014 1.12591 0.500694 53 44 47
-1.52266 1.00741 0.483721 68 37 34
-1.23238 0.517481 0.919659 13 12 56
-1.2356 0.514534 0.91228 47 42 96
-1.2355 0.464316 0.896309 32 32 92
-1.23004 0.458867 0.878912 50 45 101
-1.30609 0.645313 0.78991 25 23 98
-1.21565 0.659984 1.12544 59 58 66
-1.17254 0.678209 1.15237 145 136 157
-1.0765 0.651077 1.0346 113 104 121
-1.21495 0.697733 1.22052 154 145 166
-1.39841 -0.432182 0.695175 111 100 116
-1.39294 -0.428839 0.691262 115 106 123
-1.30986 -0.381131 0.635868 104 97 115
-1.80961 0.148208 0.527682 7 4 11
-1.39843 -0.405797 0.706956 101 99 121
-1.21468 0.449908 0.870642 43 38 94
-1.65905 -0.23948 -0.129762 99 90 109
-1.71996 -0.273473 0.602334 20 19 27
-1.797 -0.262006 0.278815 43 43 55
-1.32693 1.11243 0.434886 103 96 114
-1.30667 0.660355 0.767822 29 29 103
-1.30791 0.677816 0.786656 31 28 97
-1.3315 1.10224 0.455191 87 79 102
-1.39387 1.15888 0.431442 92 54 43
-1.35806 1.12182 0.434669 108 35 16
-1.42341 0.542564 0.33647 156 148 172
-1.40825 1.13561 0.460258 158 128 152
-1.41448 0.656898 0.384157 52 48 83
-1.3898 1.11458 0.473144 159 141 165
-1.41096 1.13887 0.449685 109 34 13
-1.40846 1.13722 0.450223 110 46 37
-1.39823 1.13081 0.446427 110 46 37
-1.39097 1.16061 0.41744 139 123 136
-1.41716 1.14177 0.445817 123 53 61
-1.39096 1.1335 0.420849 154 86 87
-1.39962 1.09518 0.512818 156 146 171
-1.3904 1.11431 0.444483 125 72 92
-1.4197 1.16751 0.423574 135 126 153
-1.41737 1.09925 0.525899 176 162 187
-1.40665 1.1251 0.447153 180 146 170
-1.38809 1.08374 0.512913 183 169 192
-1.41144 1.11287 0.477404 130 60 58
-1.33961 1.06566 0.484145 165 153 177
-1.40931 1.12892 0.442227 159 139 164
-1.417 1.17538 0.41876 82 66 76
-1.42682 1.18218 0.423854 72 55 63
-1.40382 1.11566 0.453811 176 126 155
-1.41533 1.10474 0.487032 131 44 27
-1.44456 1.11453 0.39257 80 29 10
-1.40093 1.10282 0.459648 184 131 159
-1.29056 0.418247 0.585239 97 95 117
-1.19351 0.236424 0.84668 89 87 101
-1.18425 0.304551 0.874365 65 62 73
-1.30489 0.421186 0.566764 165 160 183
-1.29383 0.627784 0.803397 22 22 84
-1.29441 0.596713 0.779561 48 42 104
-1.39972 0.63007 0.425202 50 46 69
-1.41061 0.643308 0.406717 49 46 77
-1.44242 0.565547 0.307597 146 139 155
-1.28464 0.627764 0.772744 33 32 102
-1.29284 0.577908 0.759212 12 10 59
-1.3848 1.10608 0.484668 120 120 158
-1.38291 1.09625 0.489993 107 105 144
-1.46736 1.01221 0.604335 20 11 12
-1.39428 1.12457 0.477478 28 28 64
-1.40101 1.12963 0.461556 164 141 159
-1.40135 1.12838 0.461642 165 115 124
-1.42608 1.09325 0.503944 129 85 102
-1.44151 1.09828 0.505834 183 163 191
-1.52229 0.993837 0.570802 41 37 26
-1.4918 1.02077 0.465643 130 114 81
-1.34089 1.12338 0.50395 80 67 84
-1.63197 0.366139 0.20046 79 80 100
-1.6452 0.372867 0.207603 61 62 83
-1.36459 1.15793 0.560927 106 98 122
-1.71058 0.310642 0.355243 17 16 24
-1.378 1.11113 0.470795 114 109 139
-1.35943 1.09008 0.468012 62 57 97
-1.39683 1.09607 0.504975 77 78 124
-1.40236 1.09595 0.514803 150 148 187
-1.3999 1.1498 0.45921 171 149 172
-1.41435 1.09585 0.522924 169 152 171
-1.41117 1.14684 0.46376 104 37 28
-1.43203 1.10186 0.511332 147 81 85
-1.3835 1.11172 0.458427 141 84 90
-1.4074 1.12249 0.586635 101 93 104
-1.29045 0.424125 0.567901 45 53 74
-1.29631 0.595814 0.762931 28 28 102
-1.41144 0.650939 0.392206 51 50 81
-1.39611 0.684147 0.481658 44 47 116
-1.47524 1.14211 0.350796 44 41 50
-1.39376 0.688379 0.480632 16 18 57
-1.36796 0.777253 0.679208 59 57 106
-1.47398 1.04423 0.324188 127 89 104
-1.47391 1.04341 0.323759 133 85 97
-1.4137 0.687347 0.427846 35 35 109
-1.31557 0.55118 0.670914 35 31 107
-1.31765 0.603041 0.688319 15 14 58
-1.32615 0.590017 0.673926 50 51 118
-1.29045 0.552331 0.638589 31 30 90
-1.32819 0.642697 0.689114 33 34 98
-0.0966725 1.99569 -0.223653 67 65 78
-0.129059 1.99901 -0.243348 43 40 47
0.91284 2.04842 -0.663103 126 110 120
0.619718 1.46951 0.412106 140 130 141
0.620981 1.46942 0.410942 155 143 157
1.21035 1.92266 -0.793997 84 75 80
0.62248 1.46952 0.411672 155 143 157
0.934633 2.05269 -0.686452 100 88 98
0.865907 2.17659 -0.782939 105 93 97
1.18836 1.90906 -0.75077 75 65 64
0.921544 2.04709 -0.664463 122 105 113
0.868174 2.18101 -0.789671 115 100 105
0.868174 2.18101 -0.789671 115 100 105
0.624731 1.46832 0.413089 160 148 162
0.775915 2.03165 -0.494896 126 110 120
0.624079 1.46072 0.425134 122 116 126
0.420687 0.79001 1.53257 91 82 85
1.25545 1.95212 -0.87358 71 62 63
1.27202 1.95301 -0.890372 71 62 63
1.27988 1.95217 -0.896321 93 84 89
0.626388 1.46071 0.425798 129 121 134
0.626146 1.46159 0.424856 122 116 126
0.625793 1.46113 0.425834 122 116 126
0.627143 1.46074 0.424992 129 121 134
1.26325 1.96683 -0.891063 94 82 86
1.17839 1.90844 -0.72372 78 67 65
0.881401 2.18704 -0.792372 113 98 103
0.506167 1.86668 0.0205024 22 19 28
0.893611 2.04034 -0.604697 125 109 112
0.885257 2.0398 -0.594014 122 105 111
1.16711 1.91796 -0.715486 90 78 80
0.732704 1.01354 0.938969 56 54 65
0.691067 1.55754 0.253626 138 128 139
1.16874 1.94646 -0.750297 100 91 96
1.20324 1.98305 -0.83435 100 92 103
0.694346 1.55938 0.250218 159 147 159
0.648982 1.45283 0.439432 111 105 117
0.648163 1.45361 0.439208 111 105 117
0.696807 1.55769 0.251788 175 163 177
0.698701 1.5594 0.247855 175 163 175
0.69919 1.56035 0.246398 175 165 174
0.697487 1.55137 0.26017 176 162 175
0.940883 2.03411 -0.633826 111 94 100
0.699512 1.56091 0.245616 175 165 174
1.22185 1.8686 -0.69584 82 72 73
0.700267 1.55702 0.250968 177 163 176
1.16344 1.95342 -0.747989 94 87 94
1.21936 2.01438 -0.886149 76 67 68
0.732451 1.02192 0.942904 77 74 83
1.20041 2.01558 -0.863767 52 46 48
1.22934 1.86249 -0.686887 87 73 72
1.20039 2.01601 -0.863444 52 46 48
0.718323 1.56209 0.235997 4 0 3
0.902439 2.19455 -0.798101 99 87 87
1.1426 1.94927 -0.722571 89 80 85
0.665718 1.45213 0.439814 146 135 149
0.721662 1.56171 0.236411 179 167 177
1.15051 1.95301 -0.72299 78 71 78
0.420035 0.814919 1.54421 81 78 85
1.15013 1.95531 -0.72449 89 80 85
1.13795 1.93846 -0.688054 57 51 55
1.13765 1.93897 -0.688426 57 51 55
1.19192 2.00809 -0.802329 54 49 53
1.13734 1.9378 -0.685945 58 52 54
1.20253 2.01567 -0.84889 98 87 93
1.19068 2.0059 -0.828263 59 49 50
0.736618 1.60389 0.169739 109 102 110
0.93704 2.21438 -0.852329 70 64 66
-1.4158 1.11765 0.460628 176 127 159
-1.41347 1.12389 0.459938 153 104 133
-1.43595 1.0963 0.390898 120 112 135
-1.37464 1.13187 0.448649 87 71 100
-1.40882 1.12327 0.455496 130 62 77
-1.40452 1.13335 0.44976 112 42 30
-1.37993 1.13394 0.449225 173 148 170
-1.4037 1.13295 0.448037 109 45 36
-1.40829 1.12844 0.444693 155 122 153
-1.3438 1.13569 0.425347 62 50 64
-1.39379 1.12614 0.445003 111 42 27
-1.37811 1.13893 0.444768 144 103 119
-1.4586 1.09753 0.37367 66 60 72
-1.4678 1.09393 0.380313 134 125 146
-1.34578 1.13594 0.42274 45 33 53
-1.43023 1.10706 0.387462 93 31 6
-1.3982 1.14842 0.439974 160 92 79
-1.46529 1.09734 0.374643 131 122 143
-0.33134 2.1275 -0.590415 34 28 38
-0.536761 2.09474 -0.389796 56 55 63
-0.552006 2.1043 -0.398579 50 44 54
-0.462819 2.1691 -0.571312 12 7 14
0.583781 1.41177 -1.65534 30 23 31
0.612912 1.34976 -1.68279 52 44 57
-0.479865 2.07072 -0.367753 60 57 66
1.4573 0.320448 -0.697004 132 120 130
1.16979 1.91373 -0.3444 100 90 98
1.44144 0.319863 -0.687322 132 120 130
1.44309 0.321493 -0.690821 128 117 125
1.21064 1.68008 -0.301167 134 115 117
1.20784 1.64119 -0.280577 76 62 59
1.29785 1.58049 -0.297742 81 69 71
1.20464 1.64642 -0.283669 78 68 67
1.18414 1.70584 -0.38087 81 72 73
1.39679 0.326701 -0.672195 114 110 124
1.19473 1.67034 -0.302146 143 124 126
1.41213 0.327529 -0.681456 114 110 124
1.23759 1.64501 -0.301075 63 53 52
1.218 1.63037 -0.295617 54 44 45
1.16102 1.72171 -0.411799 81 67 67
1.1781 1.69103 -0.390536 120 106 119
1.1494 1.67438 -0.379554 120 106 119
1.39713 0.333838 -0.67575 63 53 62
1.44413 0.33978 -0.716677 117 107 116
1.45162 0.34099 -0.722454 107 96 104
-0.743719 0.91673 -1.15424 123 119 144
1.18483 2.20327 -0.840094 89 80 85
1.41896 1.69907 -0.521228 60 52 50
1.3948 1.67958 -0.508706 60 52 50
1.22162 2.0408 -0.912481 74 67 74
1.21414 2.02995 -0.914236 57 52 56
1.22035 2.04194 -0.915006 57 52 56
1.4233 1.67528 -0.570545 80 72 70
1.23254 2.03974 -0.920679 59 54 60
1.44199 1.69459 -0.597704 136 117 123
1.24886 2.19504 -0.838748 57 51 53
1.42963 1.70179 -0.604516 127 112 119
1.44918 1.71907 -0.61642 130 114 117
1.26519 2.02401 -0.954105 55 49 53
1.27184 2.03258 -0.957527 55 49 53
1.42368 1.78951 -0.672301 117 102 107
1.52538 1.69502 -0.557729 107 93 92
1.48789 1.91652 -0.821119 102 90 90
1.41982 1.90087 -0.900184 112 97 100
1.54702 1.6844 -0.54472 88 77 75
1.42842 1.87516 -0.884038 102 92 93
1.4803 1.90458 -0.876489 125 108 116
1.45142 1.87658 -0.922956 99 90 93
1.41269 1.84935 -0.901053 94 84 85
1.261 2.15722 -0.811715 13 7 7
1.42204 1.84526 -0.900259 105 95 96
1.50948 1.89998 -0.950207 85 76 79
1.48416 1.70627 -0.869915 65 60 66
1.67167 1.7617 -0.790801 94 80 77
1.43871 0.350423 -0.724091 133 127 141
1.23731 1.61218 -0.337556 106 90 90
1.22143 1.65999 -0.382068 114 98 98
1.43409 0.351138 -0.72551 130 122 137
1.43043 0.352375 -0.717925 75 67 80
1.18144 1.87991 -0.392095 67 58 61
1.17448 1.87895 -0.39012 78 72 74
1.4408 0.364375 -0.745117 133 122 130
1.46864 0.362891 -0.758282 134 123 131
1.2123 1.75271 -0.465432 126 113 122
1.21621 1.75399 -0.471096 126 113 122
1.45486 0.361795 -0.750424 99 97 111
1.24782 1.6313 -0.413645 80 70 69
-0.146676 2.0054 -0.243311 96 92 109
0.0658163 1.22215 1.10582 94 86 97
0.0844255 1.24078 1.07212 99 93 107
0.0875305 1.24515 1.06491 96 89 105
0.0877581 1.24753 1.06178 98 95 114
0.0922707 1.24947 1.05638 98 95 106
0.0963417 1.25259 1.05077 86 80 92
0.0963417 1.25259 1.05077 86 80 92
0.710037 2.03604 -0.621745 83 74 75
0.100196 1.25623 1.04496 102 98 115
0.105416 1.2603 1.03719 81 75 89
0.105925 1.25899 1.03903 72 66 78
0.607285 2.0371 -0.501065 101 93 104
0.691295 2.03638 -0.585295 100 88 92
0.745905 2.04331 -0.647567 120 101 103
0.744543 2.04136 -0.64119 124 105 107
0.743479 2.04159 -0.640121 122 103 105
0.718203 2.03377 -0.602806 81 71 70
0.143255 1.29392 0.9785 88 84 99
0.712105 2.0339 -0.590832 91 81 80
0.0294793 1.02731 1.45386 115 104 118
0.607868 2.03779 -0.485873 103 95 108
0.0318032 1.02597 1.45629 69 63 73
0.615885 2.03833 -0.49263 108 98 109
0.784577 2.15726 -0.822611 97 85 89
0.0425149 1.0242 1.45794 106 98 113
0.0464141 1.02238 1.45971 85 79 91
0.724141 2.02852 -0.572528 119 106 116
0.73341 0.932701 0.891452 67 64 73
0.807349 2.15651 -0.806483 80 68 70
0.817079 2.05064 -0.671366 109 97 109
0.225058 1.35712 0.863932 93 89 104
0.22975 1.35185 0.868028 27 22 29
0.22665 1.35792 0.863023 93 89 104
0.231521 1.34937 0.871352 13 8 14
0.225251 1.3608 0.862975 70 66 81
0.225753 1.36091 0.862318 70 66 81
0.817021 2.09174 -0.717187 105 95 104
1.26365 1.61672 -0.410537 123 106 114
1.22719 1.65818 -0.405028 77 67 66
1.22704 1.65663 -0.409487 85 74 72
1.20085 1.68974 -0.402263 80 70 71
1.26305 1.62162 -0.417588 90 78 80
1.25288 1.63486 -0.416002 78 68 67
1.25483 1.63312 -0.418042 81 72 73
0.455639 2.17595 -0.587998 49 44 51
1.25652 1.63236 -0.419695 93 82 88
1.09946 1.94554 -0.279105 101 91 100
1.09916 1.95786 -0.277629 71 64 71
1.16395 1.72443 -0.412897 77 63 62
0.517372 2.0979 -0.624824 100 92 103
1.16015 1.72214 -0.413045 77 63 62
1.20358 1.67782 -0.420487 99 88 94
