# 3D point list with one line of data per point:
#   POINT3D_ID, X, Y, Z, R, G, B, ERROR, TRACK[] as (IMAGE_ID, POINT2D_IDX)
# Number of points: 640
2225 -1.3006999492645264 0.4910759925842285 0.7797359824180603 31 28 95 0
2226 -1.3200099468231201 0.6272550225257874 0.8153939843177795 41 39 102 0
2227 -1.6498899459838867 -0.06187810003757477 -0.03247540071606636 156 140 140 0
2228 -1.6433299779891968 0.0038463000673800707 0.0019633399788290262 83 80 109 0
2229 -1.4299800395965576 0.6380569934844971 0.33946698904037476 47 44 53 0
2230 -1.6569499969482422 -0.15470899641513824 -0.08335570245981216 104 105 136 0
2231 -0.6734439730644226 0.11168300360441208 2.2325100898742676 47 45 56 0
2232 -0.7770770192146301 0.10718300193548203 2.2803099155426025 19 16 23 0
2233 -1.4901399612426758 0.8538219928741455 2.000580072402954 60 62 87 0
2234 -1.0479999780654907 0.7405940294265747 2.2339699268341064 49 47 52 0
2235 -1.201159954071045 0.7136210203170776 2.186530113220215 54 52 65 0
2236 -1.3773399591445923 0.7004669904708862 0.5553330183029175 1 5 96 0
2237 -1.2112799882888794 0.6783639788627625 1.1024199724197388 15 10 16 0
2238 -1.2165100574493408 0.6817839741706848 1.0974600315093994 13 11 16 0
2239 -1.0488899946212769 1.1532200574874878 1.3435800075531006 49 43 45 0
2240 -1.0476700067520142 1.150589942932129 1.343209981918335 63 57 59 0
2241 0.15797699987888336 -0.6697329878807068 2.0729899406433105 54 51 60 0
2242 -1.233929991722107 0.6012880206108093 1.1711399555206299 9 4 11 0
2243 -1.23649001121521 0.5999320149421692 1.175089955329895 14 9 16 0
2244 0.13830499351024628 -0.696806013584137 2.132050037384033 44 44 54 0
2245 -1.3996299505233765 0.6815189719200134 1.3568099737167358 10 4 14 0
2246 -0.006541479844599962 -0.6883249878883362 2.1012299060821533 69 65 80 0
2247 0.138373002409935 -0.6840289831161499 2.1563799381256104 41 40 48 0
2248 -0.004742660094052553 -0.6605640053749084 2.0948400497436523 109 105 119 0
2249 0.13287800550460815 -0.6686660051345825 2.1737000942230225 49 46 55 0
2250 -0.005548379849642515 -0.6070780158042908 2.134469985961914 55 54 70 0
2251 -0.37224099040031433 1.3646299839019775 1.8455100059509277 27 24 31 0
2252 0.3882339894771576 1.144629955291748 2.268359899520874 65 62 71 0
2253 0.3785580098628998 1.1337499618530273 2.2595999240875244 59 56 67 0
2254 -1.049780011177063 -0.04106070101261139 1.963539958000183 116 108 132 0
2255 -0.14296600222587585 2.0054099559783936 -0.24521200358867645 41 40 46 0
2256 -1.5410300493240356 0.982496976852417 0.4750570058822632 45 12 3 0
2257 -1.542080044746399 0.9843379855155945 0.4759970009326935 48 19 11 0
2258 -1.3686000108718872 0.9534249901771545 0.8965179920196533 16 14 19 0
2259 -1.4541800022125244 0.972258985042572 0.887283980846405 50 49 57 0
2260 -1.4295400381088257 0.6715180277824402 0.3643530011177063 49 46 73 0
2261 -1.2930799722671509 0.4202750027179718 0.5759879946708679 23 29 45 0
2262 -1.3012299537658691 0.4489549994468689 0.5656020045280457 41 36 42 0
2263 -1.2951500415802002 0.42051300406455994 0.5764920115470886 27 30 49 0
2264 -1.335710048675537 0.4333460032939911 0.5953770279884338 27 30 49 0
2265 -1.2247799634933472 0.708495020866394 1.234339952468872 83 81 94 0
2266 -1.2207399606704712 0.6682119965553284 1.1910799741744995 144 133 150 0
2267 -1.1991900205612183 0.6599460244178772 1.1693799495697021 160 151 172 0
2268 -1.1706000566482544 0.7161759734153748 1.1894099712371826 90 88 109 0
2269 -1.1740800142288208 0.6562280058860779 1.1977900266647339 153 144 165 0
2270 0.48526400327682495 0.6280930042266846 1.6118799448013306 6 1 8 0
2271 -1.2255500555038452 0.5961509943008423 1.1651599407196045 134 128 142 0
2272 -1.1679600477218628 0.649308979511261 1.1818100214004517 152 144 167 0
2273 -1.1827199459075928 0.685018002986908 1.2103099822998047 64 61 80 0
2274 -1.2398099899291992 0.6807330250740051 1.1263600587844849 12 9 16 0
2275 -1.2284300327301025 0.6767879724502563 1.1120400428771973 12 9 16 0
2276 -1.1891200542449951 0.6491150259971619 1.19035005569458 113 105 129 0
2277 -1.193310022354126 0.6642850041389465 1.224310040473938 137 129 153 0
2278 -1.1638599634170532 0.6521139740943909 1.1945500373840332 128 123 146 0
2279 -1.234760046005249 0.6192269921302795 1.1652799844741821 68 58 69 0
2280 -1.1714500188827515 0.6532639861106873 1.1968599557876587 137 129 153 0
2281 -1.1583199501037598 0.6625959873199463 1.2102999687194824 7 2 8 0
2282 -1.2308800220489502 0.582368016242981 1.1951199769973755 136 128 151 0
2283 -1.257290005683899 0.6185470223426819 1.1840399503707886 132 126 140 0
2284 -1.3132400512695312 0.5334100127220154 0.6697480082511902 53 52 120 0
2285 -1.31072998046875 0.5352259874343872 0.6673219799995422 53 52 120 0
2286 -1.3543200492858887 0.7096899747848511 0.6225469708442688 12 10 23 0
2287 -1.3161100149154663 0.5440040230751038 0.6698039770126343 17 17 107 0
2288 -1.3188999891281128 0.5731790065765381 0.6625970005989075 14 13 44 0
2289 -1.3098599910736084 0.5034989714622498 0.6902040243148804 26 23 70 0
2290 -1.3041599988937378 0.5433819890022278 0.6634269952774048 36 32 108 0
2291 -1.3133900165557861 0.5440430045127869 0.6735320091247559 18 20 103 0
2292 -1.4021400213241577 -0.4758470058441162 0.6742540001869202 119 111 132 0
2293 -1.2508599758148193 0.5076659917831421 0.8512809872627258 21 17 67 0
2294 -1.198799967765808 0.2931700050830841 0.8740890026092529 87 85 98 0
2295 -1.400339961051941 -0.4570159912109375 0.6826630234718323 94 95 116 0
2296 -1.3976199626922607 -0.4525130093097687 0.6828460097312927 109 111 126 0
2297 -1.4226000308990479 0.6487740278244019 0.32994699478149414 36 35 43 0
2298 -1.4274100065231323 0.6684219837188721 0.3605700135231018 49 46 73 0
2299 -1.426509976387024 0.6681259870529175 0.36204099655151367 44 42 66 0
2300 -1.6585099697113037 0.3592419922351837 0.2058420032262802 134 127 143 0
2301 -0.003572199959307909 -1.1795400381088257 1.849769949913025 101 98 117 0
2302 -0.003478199942037463 -1.1584500074386597 1.8231500387191772 86 83 104 0
2303 -0.005568339955061674 -1.1180000305175781 1.7589600086212158 72 62 71 0
2304 -0.01928050071001053 -1.159850001335144 1.8427200317382812 32 31 39 0
2305 -0.021131200715899467 -1.1644200086593628 1.8513200283050537 16 15 23 0
2306 0.1277649998664856 -0.9523280262947083 1.9652800559997559 26 25 33 0
2307 -1.3095799684524536 0.67746901512146 0.7866690158843994 27 25 98 0
2308 -1.3707000017166138 1.114109992980957 0.5475819706916809 142 134 149 0
2309 -1.4137200117111206 1.1258100271224976 0.5876439809799194 110 100 108 0
2310 -1.406690001487732 1.1167999505996704 0.5795729756355286 111 104 111 0
2311 -1.235010027885437 0.24598699808120728 0.8023309707641602 202 193 214 0
2312 1.1348600387573242 1.6846100091934204 -0.17002800107002258 109 96 105 0
2313 1.2148300409317017 1.5336300134658813 -0.22708900272846222 76 61 58 0
2314 1.2145999670028687 1.5349199771881104 -0.22827200591564178 78 63 60 0
2315 1.20878005027771 1.5432100296020508 -0.22605499625205994 82 68 67 0
2316 1.0288200378417969 1.8430399894714355 -0.11079300194978714 111 100 108 0
2317 1.0294899940490723 1.8449100255966187 -0.11080200225114822 111 100 108 0
2318 1.1341899633407593 1.783329963684082 -0.17786599695682526 88 79 84 0
2319 1.1236000061035156 1.677340030670166 -0.17041300237178802 108 95 104 0
2320 1.133810043334961 1.6799299716949463 -0.17082999646663666 93 82 86 0
2321 1.209149956703186 1.5435600280761719 -0.22734099626541138 89 75 75 0
2322 1.061560034751892 1.792549967765808 -0.1331769973039627 80 69 75 0
2323 1.123960018157959 1.6775100231170654 -0.17127500474452972 113 98 105 0
2324 1.071969985961914 1.744860053062439 -0.16833999752998352 88 83 90 0
2325 1.0246700048446655 1.859220027923584 -0.10944300144910812 79 69 70 0
2326 1.115399956703186 1.697219967842102 -0.17556199431419373 124 107 113 0
2327 1.2336599826812744 1.5148999691009521 -0.23886999487876892 115 102 111 0
2328 1.2026499509811401 1.5568100214004517 -0.2279909998178482 98 84 84 0
2329 1.2058299779891968 1.5529299974441528 -0.22971299290657043 73 59 56 0
2330 1.110319972038269 1.702489972114563 -0.17835399508476257 90 78 80 0
2331 1.236590027809143 1.5134299993515015 -0.2408449947834015 121 106 113 0
2332 1.2372900247573853 1.514549970626831 -0.24167600274085999 121 106 113 0
2333 -0.14394600689411163 1.9019700288772583 -1.0030900239944458 53 47 57 0
2334 1.1872999668121338 1.5921200513839722 -0.22204099595546722 75 65 64 0
2335 -0.36289501190185547 2.071039915084839 -1.0383700132369995 29 22 30 0
2336 1.243980050086975 1.5123599767684937 -0.24807000160217285 84 72 72 0
2337 1.188889980316162 1.592170000076294 -0.22378699481487274 71 61 60 0
2338 1.0750199556350708 1.7853599786758423 -0.1507200002670288 108 95 104 0
2339 1.0737199783325195 1.7419400215148926 -0.18623800575733185 117 103 116 0
2340 1.134310007095337 1.6914900541305542 -0.18746699392795563 103 92 100 0
2341 1.2600300312042236 1.4981399774551392 -0.2537890076637268 100 88 92 0
2342 1.0327399969100952 1.8786499500274658 -0.12444400042295456 107 95 105 0
2343 1.025339961051941 1.8730000257492065 -0.1256989985704422 105 95 104 0
2344 1.1363600492477417 1.6929099559783936 -0.19095300137996674 112 99 106 0
2345 1.136430025100708 1.6919200420379639 -0.19059500098228455 111 98 107 0
2346 -0.35912299156188965 2.063390016555786 -1.0535399913787842 18 10 21 0
2347 1.0773799419403076 1.753980040550232 -0.18979500234127045 69 63 65 0
2348 -0.36217498779296875 2.067389965057373 -1.0576800107955933 10 5 12 0
2349 1.2340699434280396 1.532920002937317 -0.2578040063381195 84 75 78 0
2350 1.2355600595474243 1.5321400165557861 -0.25729599595069885 85 74 78 0
2351 1.0798200368881226 1.7905999422073364 -0.16105400025844574 108 95 104 0
2352 1.0828200578689575 1.7938300371170044 -0.16175100207328796 109 96 105 0
2353 -0.36396899819374084 2.071850061416626 -1.058590054512024 11 4 12 0
2354 1.0820200443267822 1.7883199453353882 -0.16195900738239288 88 76 78 0
2355 -0.06981159746646881 1.888010025024414 -0.9841300249099731 56 48 61 0
2356 -1.249400019645691 0.4853630065917969 0.6480039954185486 34 32 82 0
2357 -1.3989299535751343 0.6319069862365723 0.4220980107784271 48 44 71 0
2358 -0.00569747993722558 -0.6477289795875549 2.114039897918701 83 84 104 0
2359 -0.005103670060634613 -0.632660984992981 2.1072399616241455 94 91 110 0
2360 -0.005779790226370096 -0.6110720038414001 2.157939910888672 34 34 44 0
2361 -1.3377900123596191 0.43045100569725037 0.6038079857826233 31 36 55 0
2362 -1.4515399932861328 1.105929970741272 0.36552301049232483 105 98 116 0
2363 -1.3798500299453735 1.109910011291504 0.4761419892311096 109 110 154 0
2364 0.46549201011657715 2.1530299186706543 -0.5700740218162537 82 77 83 0
2365 0.4498229920864105 1.9724700450897217 -0.9951030015945435 31 26 33 0
2366 0.3477729856967926 1.9269499778747559 -1.0695300102233887 26 20 30 0
2367 0.34210100769996643 1.9232499599456787 -1.0667500495910645 28 22 32 0
2368 0.4516800045967102 2.1598598957061768 -0.5564770102500916 42 37 43 0
2369 0.3785090148448944 1.9668200016021729 -1.1032500267028809 21 16 23 0
2370 0.493833988904953 2.132810115814209 -0.6086620092391968 47 42 48 0
2371 0.514618992805481 2.2015199661254883 -0.6511880159378052 45 40 46 0
2372 0.5573790073394775 2.048069953918457 -0.9734259843826294 62 54 67 0
2373 0.4559580087661743 2.174639940261841 -0.5857999920845032 46 45 51 0
2374 0.562283992767334 2.0513899326324463 -1.0505900382995605 28 21 29 0
2375 0.5906239748001099 2.069200038909912 -1.1151100397109985 32 26 36 0
2376 0.5979959964752197 2.05580997467041 -1.1545100212097168 44 39 46 0
2377 0.5979729890823364 2.0703001022338867 -1.1319299936294556 45 42 51 0
2378 -0.13296100497245789 1.9546400308609009 -1.0537999868392944 18 13 19 0
2379 -0.20333899557590485 1.9409600496292114 -1.0590200424194336 16 11 18 0
2380 -0.4250369966030121 2.1391398906707764 -0.610476016998291 41 33 44 0
2381 -1.3616700172424316 2.163949966430664 -0.173117995262146 22 21 27 0
2382 -0.36718299984931946 2.1179399490356445 -0.9124540090560913 27 19 30 0
2383 -1.3818299770355225 1.1041699647903442 0.48214900493621826 121 116 148 0
2384 -1.3876800537109375 1.1078699827194214 0.4854620099067688 118 114 149 0
2385 -1.4608700275421143 1.0839300155639648 0.4485209882259369 39 47 58 0
2386 -1.4508099555969238 1.097000002861023 0.5133960247039795 162 149 169 0
2387 -1.4635100364685059 1.075469970703125 0.42882901430130005 139 125 151 0
2388 -1.437980055809021 1.0988099575042725 0.4998529851436615 189 136 164 0
2389 -1.4137599468231201 1.1211400032043457 0.5430939793586731 95 89 99 0
2390 -0.34591200947761536 2.05430006980896 -0.32002800703048706 66 60 70 0
2391 -1.3454899787902832 0.7299399971961975 0.6289389729499817 13 10 53 0
2392 -1.3574299812316895 0.6315510272979736 0.5731319785118103 60 55 122 0
2393 -1.198140025138855 0.22809800505638123 0.8289030194282532 148 141 174 0
2394 -1.2297699451446533 0.46115899085998535 0.8281130194664001 31 30 90 0
2395 -1.159500002861023 0.6448550224304199 1.1186100244522095 149 140 159 0
2396 -1.1712299585342407 0.860306978225708 0.9679539799690247 146 141 164 0
2397 -1.4468200206756592 1.029289960861206 0.6096640229225159 64 56 43 0
2398 -1.2958099842071533 0.540365993976593 0.7272570133209229 26 25 95 0
2399 -1.548949956893921 0.9816849827766418 0.47868800163269043 41 8 1 0
2400 -1.3646399974822998 0.639756977558136 0.7692810297012329 10 9 41 0
2401 -1.3206000328063965 0.6293370127677917 0.7367169857025146 37 34 103 0
2402 -1.52183997631073 1.0258300304412842 0.43767300248146057 115 102 119 0
2403 -1.4340200424194336 1.0633200407028198 0.562995970249176 121 108 92 0
2404 -1.2762099504470825 0.41347798705101013 0.6245309710502625 110 110 144 0
2405 -1.1284799575805664 0.891638994216919 0.9717289805412292 137 128 155 0
2406 -1.4287300109863281 1.060829997062683 0.5601270198822021 190 153 135 0
2407 -1.4342299699783325 1.0590499639511108 0.5584549903869629 181 141 131 0
2408 -1.3454899787902832 0.6814829707145691 0.5490220189094543 9 10 56 0
2409 -1.2717599868774414 0.9509350061416626 0.7715209722518921 63 59 73 0
2410 -1.3289899826049805 0.38225799798965454 0.5879809856414795 185 177 201 0
2411 -1.1342500448226929 0.8883020281791687 0.9757320284843445 146 137 164 0
2412 -1.5126700401306152 1.0189199447631836 0.43594399094581604 115 99 112 0
2413 -1.382390022277832 0.5018590092658997 0.3997710049152374 174 164 189 0
2414 -1.4535900354385376 1.1208000183105469 0.5062860250473022 128 45 39 0
2415 -1.477220058441162 1.0829499959945679 0.4291419982910156 131 119 143 0
2416 -1.3494600057601929 1.062459945678711 0.4524019956588745 136 47 33 0
2417 -1.486299991607666 1.2199300527572632 0.40070098638534546 50 49 57 0
2418 -1.451490044593811 1.0706499814987183 0.42084699869155884 133 121 143 0
2419 -1.502079963684082 1.2265199422836304 0.4062260091304779 50 49 57 0
2420 -1.4794800281524658 1.0806900262832642 0.40917399525642395 80 73 91 0
2421 -1.4348900318145752 1.104009985923767 0.5029469728469849 129 49 42 0
2422 -1.894129991531372 -0.3731580078601837 0.44137999415397644 29 26 35 0
2423 -1.2359600067138672 0.4415769875049591 0.9069049954414368 27 24 81 0
2424 -1.2053500413894653 0.5361160039901733 0.8381879925727844 47 43 94 0
2425 -1.4019099473953247 -0.3892340064048767 0.7221879959106445 117 110 128 0
2426 -1.2253700494766235 0.44116801023483276 0.8950499892234802 13 13 65 0
2427 -1.2465300559997559 0.4582349956035614 0.8323760032653809 28 25 82 0
2428 -1.3822100162506104 -0.48753198981285095 0.6457800269126892 114 110 135 0
2429 -1.3863799571990967 -0.4880020022392273 0.6495929956436157 96 97 118 0
2430 -1.247630000114441 0.456510990858078 0.8433449864387512 33 29 88 0
2431 -1.2597800493240356 0.5087950229644775 0.8449410200119019 37 33 84 0
2432 1.364799976348877 1.323639988899231 0.019529199227690697 34 31 38 0
2433 1.35316002368927 1.3154100179672241 0.017166700214147568 34 31 38 0
2434 1.3932199478149414 1.3415299654006958 0.008392849937081337 39 38 46 0
2435 1.3420499563217163 1.3063299655914307 0.024399299174547195 34 31 38 0
2436 1.343709945678711 1.3638800382614136 0.022275900468230247 97 92 99 0
2437 1.204360008239746 1.5216399431228638 -0.21289999783039093 122 106 109 0
2438 1.3210999965667725 1.3459800481796265 0.025752300396561623 87 82 88 0
2439 1.1746400594711304 1.6840900182724 -0.25371700525283813 105 95 96 0
2440 1.4171299934387207 0.3018209934234619 -0.6509389877319336 127 115 127 0
2441 1.4021799564361572 0.3029879927635193 -0.6422680020332336 104 99 119 0
2442 1.1292699575424194 1.7352999448776245 -0.3402499854564667 128 112 122 0
2443 1.40556001663208 0.30547699332237244 -0.6481419801712036 106 102 119 0
2444 1.4347699880599976 0.310371994972229 -0.6662960052490234 106 102 119 0
2445 1.3985199928283691 0.30743300914764404 -0.6467599868774414 114 108 122 0
2446 1.1537699699401855 1.74753999710083 -0.374642014503479 132 116 126 0
2447 1.4129199981689453 0.31681299209594727 -0.6574349999427795 62 54 65 0
2448 1.1426500082015991 1.7389600276947021 -0.3711419999599457 132 116 126 0
2449 1.1741100549697876 1.6955000162124634 -0.2824060022830963 62 53 54 0
2450 1.233620047569275 1.5042799711227417 -0.2463809996843338 87 75 75 0
2451 1.118499994277954 1.4772700071334839 -0.054853301495313644 84 72 72 0
2452 1.056030035018921 1.563599944114685 -0.024148499593138695 51 43 41 0
2453 1.0541499853134155 1.638010025024414 0.03047819994390011 77 74 83 0
2454 1.0695600509643555 1.5458699464797974 -0.03546230122447014 110 93 99 0
2455 1.0747499465942383 1.539680004119873 -0.03872409835457802 105 91 91 0
2456 1.0625100135803223 1.5668599605560303 -0.026494700461626053 56 50 50 0
2457 1.0614800453186035 1.5664499998092651 -0.02974650077521801 70 61 62 0
2458 1.074869990348816 1.5402300357818604 -0.03935150057077408 100 86 85 0
2459 1.0464799404144287 1.6592899560928345 0.03500020131468773 109 97 107 0
2460 1.0406500101089478 1.6307300329208374 0.022749200463294983 71 65 69 0
2461 1.06141996383667 1.5732899904251099 -0.0356689989566803 79 69 68 0
2462 1.0567699670791626 1.5833899974822998 -0.03473540022969246 103 92 98 0
2463 1.0558899641036987 1.594670057296753 -0.02679309993982315 61 52 53 0
2464 1.0781300067901611 1.6002800464630127 -0.03464629873633385 97 87 88 0
2465 1.1040500402450562 1.5002100467681885 0.039555300027132034 96 89 97 0
2466 1.0652199983596802 1.6060999631881714 0.06415200233459473 78 71 78 0
2467 -0.17532199621200562 1.3880399465560913 -1.4165500402450562 67 59 74 0
2468 0.615106999874115 2.0421700477600098 -0.5430060029029846 130 116 129 0
2469 0.5080990195274353 2.0906500816345215 -0.4708549976348877 92 85 92 0
2470 -0.10971400141716003 1.377959966659546 -1.4632699489593506 64 56 71 0
2471 0.5066559910774231 2.0543699264526367 -0.5112850069999695 70 64 68 0
2472 0.5567600131034851 1.4584800004959106 -1.5149500370025635 61 53 66 0
2473 0.5862569808959961 1.4163299798965454 -1.609279990196228 50 42 55 0
2474 0.5186280012130737 1.4306000471115112 -1.46288001537323 55 49 61 0
2475 0.4904879927635193 2.10260009765625 -0.4764130115509033 87 80 88 0
2476 0.574741005897522 1.4875500202178955 -1.5200999975204468 49 41 52 0
2477 -0.4048199951648712 1.3818800449371338 -1.5086899995803833 26 21 28 0
2478 -0.3996239900588989 1.3833800554275513 -1.5119600296020508 20 15 22 0
2479 0.5906659960746765 1.410789966583252 -1.6310100555419922 8 2 12 0
2480 0.552482008934021 1.7203999757766724 -1.3378000259399414 49 41 54 0
2481 -0.39662399888038635 1.3911399841308594 -1.5861200094223022 23 16 24 0
2482 -1.418869972229004 1.0874099731445312 0.5139560103416443 167 151 178 0
2483 -1.4051400423049927 1.1022499799728394 0.5084229707717896 113 111 160 0
2484 -1.4251099824905396 1.1200900077819824 0.514805018901825 78 80 131 0
2485 -1.3323899507522583 1.1148899793624878 0.46577998995780945 38 37 55 0
2486 -1.4227499961853027 1.0889699459075928 0.5138919949531555 185 167 193 0
2487 -1.3189300298690796 1.1026300191879272 0.43213000893592834 98 89 106 0
2488 -1.3212699890136719 1.1056300401687622 0.4330959916114807 106 97 116 0
2489 -1.321969985961914 1.1091699600219727 0.4507269859313965 84 75 94 0
2490 -1.3250099420547485 1.1135599613189697 0.4512690007686615 112 103 124 0
2491 -1.4459199905395508 1.0586600303649902 0.4474950134754181 70 69 85 0
2492 -1.4611899852752686 1.0737500190734863 0.45058000087738037 28 47 64 0
2493 -1.3800599575042725 1.0883599519729614 0.5271139740943909 131 118 135 0
2494 -1.4731999635696411 1.044510006904602 0.35283300280570984 106 58 54 0
2495 -1.3902699947357178 1.100119948387146 0.5290470123291016 135 125 149 0
2496 -1.422160029411316 1.131600022315979 0.5429409742355347 135 125 149 0
2497 -1.4336400032043457 1.097480058670044 0.5090649724006653 129 77 90 0
2498 1.3015999794006348 1.69937002658844 -0.4546689987182617 161 140 147 0
2499 0.9746530055999756 1.4133000373840332 -0.3314000070095062 66 57 60 0
2500 1.276319980621338 1.723829984664917 -0.44409799575805664 70 61 64 0
2501 1.2056000232696533 1.6897300481796265 -0.40308400988578796 79 68 66 0
2502 1.219849944114685 1.7009999752044678 -0.41652700304985046 76 65 69 0
2503 1.1708400249481201 1.6555500030517578 -0.38845300674438477 80 70 71 0
2504 1.5273799896240234 1.5507999658584595 -0.3643450140953064 77 72 79 0
2505 1.2224299907684326 1.7017699480056763 -0.4398289918899536 123 108 115 0
2506 1.215149998664856 1.6997300386428833 -0.43507999181747437 131 114 122 0
2507 1.2821600437164307 1.6833900213241577 -0.48440098762512207 137 120 130 0
2508 1.1966700553894043 1.6816600561141968 -0.4331740140914917 130 113 119 0
2509 1.1465799808502197 1.7529499530792236 -0.3440439999103546 135 118 126 0
2510 1.335729956626892 1.7458800077438354 -0.5293449759483337 127 111 121 0
2511 1.2196300029754639 1.683609962463379 -0.4781779944896698 127 110 120 0
2512 1.2797000408172607 1.6327699422836304 -0.49476200342178345 65 55 63 0
2513 1.3044300079345703 1.7690500020980835 -0.517831027507782 125 108 116 0
2514 1.2035399675369263 1.7392300367355347 -0.46183300018310547 121 110 118 0
2515 1.2157100439071655 1.6774200201034546 -0.4866969883441925 121 104 112 0
2516 1.2396800518035889 1.7074400186538696 -0.49012601375579834 121 104 112 0
2517 1.3918999433517456 1.6535300016403198 -0.5366470217704773 66 60 60 0
2518 1.2947900295257568 1.568060040473938 -0.49212899804115295 71 65 67 0
2519 1.3883800506591797 1.654860019683838 -0.5495709776878357 70 64 66 0
2520 1.4499499797821045 1.701159954071045 -0.5755490064620972 84 74 75 0
2521 1.3741300106048584 1.676669955253601 -0.5066109895706177 58 52 54 0
2522 1.409000039100647 1.6605900526046753 -0.5634430050849915 82 72 73 0
2523 1.3883299827575684 1.6738200187683105 -0.5085560083389282 60 51 52 0
2524 1.305780053138733 1.5852500200271606 -0.4591769874095917 59 50 53 0
2525 1.351930022239685 1.637179970741272 -0.48594900965690613 60 51 52 0
2526 1.3664000034332275 1.6777499914169312 -0.5032349824905396 54 48 50 0
2527 1.417680025100708 1.6700199842453003 -0.584106981754303 134 117 123 0
2528 1.4641000032424927 1.6291099786758423 -0.5336989760398865 99 84 77 0
2529 1.4914499521255493 1.7371599674224854 -0.6305800080299377 121 105 108 0
2530 1.4513599872589111 1.6922600269317627 -0.6090289950370789 109 95 95 0
2531 1.3159799575805664 1.6679799556732178 -0.5160449743270874 140 123 131 0
2532 1.5073299407958984 1.7591500282287598 -0.6420000195503235 112 98 98 0
2533 1.4482200145721436 1.691849946975708 -0.6068040132522583 121 105 108 0
2534 1.5814000368118286 1.7264599800109863 -0.583217978477478 94 81 73 0
2535 0.5260360240936279 1.9690799713134766 -1.07600998878479 53 47 57 0
2536 -0.40354201197624207 2.1907999515533447 -0.8792619705200195 19 14 21 0
2537 -1.3890000581741333 1.1123499870300293 0.479095995426178 66 59 93 0
2538 -1.381100058555603 1.1129000186920166 0.47610899806022644 117 117 153 0
2539 -1.5189199447631836 1.032480001449585 0.33838599920272827 58 53 60 0
2540 -1.409440040588379 1.1455399990081787 0.5585749745368958 34 31 38 0
2541 -1.4190800189971924 1.1045000553131104 0.4820519983768463 159 109 134 0
2542 -1.4574600458145142 1.0790499448776245 0.41850900650024414 140 127 155 0
2543 -1.3861199617385864 1.1144599914550781 0.4752500057220459 42 40 80 0
2544 -1.4750399589538574 1.0737199783325195 0.41766101121902466 131 119 139 0
2545 -1.516759991645813 1.0344799757003784 0.33437401056289673 51 46 52 0
2546 -1.3968299627304077 1.0940799713134766 0.4756520092487335 130 53 45 0
2547 -1.373020052909851 0.9638720154762268 0.8873580098152161 34 32 37 0
2548 -1.2350900173187256 1.0764100551605225 0.6845970153808594 61 55 55 0
2549 -1.2407100200653076 1.072909951210022 0.686909019947052 83 73 74 0
2550 -1.2407499551773071 1.0732300281524658 0.6875680088996887 83 73 74 0
2551 -1.2445100545883179 1.0807900428771973 0.6831449866294861 95 88 96 0
2552 -1.23812997341156 1.075659990310669 0.6811630129814148 95 88 96 0
2553 -1.2403899431228638 1.070639967918396 0.6800400018692017 23 20 27 0
2554 -1.2351200580596924 1.0716400146484375 0.6782240271568298 56 51 55 0
2555 -1.2469899654388428 1.0750499963760376 0.6811559796333313 23 22 28 0
2556 -1.2509700059890747 1.0750900506973267 0.6807569861412048 25 24 32 0
2557 -1.332990050315857 1.0722899436950684 0.4830709993839264 122 113 140 0
2558 -1.369189977645874 1.0743199586868286 0.5153049826622009 73 65 89 0
2559 -1.3328299522399902 1.0872299671173096 0.46146899461746216 123 113 137 0
2560 -1.3802800178527832 1.0490200519561768 0.7337549924850464 79 71 86 0
2561 -1.3314499855041504 1.0810500383377075 0.4816269874572754 40 24 34 0
2562 -1.3364499807357788 1.0828299522399902 0.48733699321746826 46 38 59 0
2563 -1.3604400157928467 1.076449990272522 0.6960930228233337 71 67 81 0
2564 -1.343690037727356 1.0815500020980835 0.49907800555229187 100 92 115 0
2565 -1.5111099481582642 0.9919040203094482 0.42689400911331177 92 28 16 0
2566 -1.2787699699401855 1.0420199632644653 0.48510000109672546 100 92 115 0
2567 -1.3479399681091309 1.0882500410079956 0.5015910267829895 99 91 114 0
2568 -1.312059998512268 1.09961998462677 0.43517500162124634 110 103 121 0
2569 -1.267300009727478 1.0642999410629272 0.45298999547958374 38 37 55 0
2570 -1.2993600368499756 1.0886199474334717 0.46047401428222656 82 78 95 0
2571 -1.4509299993515015 1.0837700366973877 0.4084410071372986 137 125 149 0
2572 -1.447409987449646 1.0855000019073486 0.4021730124950409 141 129 153 0
2573 -1.4464099407196045 1.0889099836349487 0.39673900604248047 144 132 156 0
2574 -1.44691002368927 1.0947599411010742 0.3922309875488281 140 128 150 0
2575 -1.4369800090789795 1.1026500463485718 0.3766539990901947 122 104 126 0
2576 -1.5063999891281128 0.9915940165519714 0.3687469959259033 58 56 61 0
2577 -1.3569999933242798 0.6974120140075684 0.6212239861488342 48 47 113 0
2578 -1.3669400215148926 0.6875709891319275 0.5676310062408447 7 8 75 0
2579 -1.4521600008010864 0.5830230116844177 0.2971549928188324 76 73 82 0
2580 -1.347059965133667 1.0948400497436523 0.484919011592865 36 25 31 0
2581 -1.3250199556350708 1.1443599462509155 0.46999600529670715 96 84 104 0
2582 -1.2912700176239014 1.0612399578094482 0.4535770118236542 37 27 35 0
2583 -1.3429399728775024 1.1395200490951538 0.4869070053100586 55 47 60 0
2584 -1.3518699407577515 1.1038399934768677 0.48920801281929016 32 24 35 0
2585 -1.4289900064468384 1.1259599924087524 0.5328149795532227 118 112 138 0
2586 -1.6481900215148926 0.2086620032787323 0.11782699823379517 165 152 161 0
2587 -1.6290600299835205 0.21324199438095093 0.11409600079059601 130 134 159 0
2588 -1.2908200025558472 1.0866700410842896 0.4618209898471832 40 37 58 0
2589 -1.6475399732589722 0.21702000498771667 0.12274300307035446 171 166 188 0
2590 -1.345460057258606 1.1133899688720703 0.49751099944114685 45 30 35 0
2591 -1.317929983139038 1.1883100271224976 0.47837600111961365 115 105 132 0
2592 -1.3153599500656128 1.188439965248108 0.4771760106086731 116 110 136 0
2593 -1.316830039024353 1.192020058631897 0.4793420135974884 45 43 56 0
2594 -1.3166099786758423 1.1906399726867676 0.47961199283599854 120 114 142 0
2595 -1.3389300107955933 1.1096299886703491 0.4959520101547241 45 30 35 0
2596 -1.3538999557495117 1.1175999641418457 0.5019699931144714 42 30 40 0
2597 -1.662969946861267 0.22654099762439728 0.13208499550819397 84 89 109 0
2598 -1.343459963798523 1.1120599508285522 0.5005429983139038 42 30 40 0
2599 -1.3162800073623657 1.198490023612976 0.47653600573539734 47 46 54 0
2600 -1.1926000118255615 0.2300560027360916 0.8352559804916382 111 104 120 0
2601 -1.4084999561309814 0.644756019115448 0.40023601055145264 54 50 77 0
2602 -1.412500023841858 0.6508399844169617 0.3928920030593872 51 48 77 0
2603 -1.4254000186920166 0.6722779870033264 0.36687999963760376 48 48 74 0
2604 -1.2347400188446045 0.44451799988746643 0.9105010032653809 48 43 97 0
2605 -1.2273199558258057 0.4468050003051758 0.8883839845657349 10 10 46 0
2606 -1.200850009918213 0.6381629705429077 1.132830023765564 55 53 64 0
2607 -1.2063900232315063 0.6355839967727661 1.1407500505447388 55 53 64 0
2608 -1.200760006904602 0.6409609913825989 1.133389949798584 45 42 51 0
2609 -1.188040018081665 0.9264500141143799 0.8303769826889038 46 47 75 0
2610 -1.2601799964904785 0.9056789875030518 0.8530470132827759 171 160 177 0
2611 -0.5116299986839294 2.0864601135253906 -0.38038599491119385 81 76 83 0
2612 -0.5122290253639221 2.092250108718872 -0.3817580044269562 70 68 79 0
2613 -0.18977999687194824 1.943660020828247 -1.0484000444412231 23 18 24 0
2614 -0.5371500253677368 2.0938899517059326 -0.3906269967556 65 62 71 0
2615 -0.49982398748397827 2.165060043334961 -0.539152979850769 109 96 114 0
2616 -0.5039399862289429 2.1708199977874756 -0.5389000177383423 112 100 122 0
2617 0.5463500022888184 2.100800037384033 -0.6886249780654907 69 64 71 0
2618 0.5595290064811707 1.860949993133545 -1.2595399618148804 42 35 43 0
2619 0.45443299412727356 2.1481099128723145 -0.5678679943084717 60 55 61 0
2620 0.423895001411438 1.9537700414657593 -0.9827499985694885 40 32 43 0
2621 0.5765320062637329 1.8782800436019897 -1.2818599939346313 39 34 41 0
2622 0.49515500664711 2.1200499534606934 -0.6256080269813538 67 62 69 0
2623 0.5025720000267029 2.145519971847534 -0.6107820272445679 27 22 28 0
2624 0.13455000519752502 1.8813199996948242 -1.046589970588684 44 34 43 0
2625 0.5957149863243103 2.1054699420928955 -1.01882004737854 63 55 68 0
2626 0.5731819868087769 1.9595400094985962 -1.2016899585723877 35 30 37 0
2627 0.5305719971656799 2.0044500827789307 -1.0492500066757202 61 55 67 0
2628 0.5807129740715027 1.9693100452423096 -1.2093000411987305 46 39 47 0
2629 0.5327349901199341 2.005150079727173 -1.0539300441741943 50 42 53 0
2630 0.5416820049285889 1.9972699880599976 -1.1239500045776367 55 44 58 0
2631 0.5266299843788147 1.971709966659546 -1.1071399450302124 52 44 55 0
2632 0.5770859718322754 2.0435800552368164 -1.1172499656677246 53 45 56 0
2633 0.5805230140686035 2.0261800289154053 -1.1584399938583374 43 36 44 0
2634 0.5955479741096497 2.0429699420928955 -1.1721299886703491 49 41 52 0
2635 -0.22386600077152252 1.9764100313186646 -0.9978039860725403 37 30 38 0
2636 -0.2245050072669983 1.9787299633026123 -0.9997720122337341 37 30 38 0
2637 -0.10406599938869476 2.17182993888855 -0.5565540194511414 28 26 31 0
2638 -0.3196370005607605 2.1289501190185547 -0.5965059995651245 21 15 25 0
2639 0.9354469776153564 2.4923698902130127 -1.0448299646377563 25 20 26 0
2640 0.7206310033798218 2.2572200298309326 -0.9603390097618103 11 6 13 0
2641 -1.3983800411224365 1.1654900312423706 0.42041200399398804 100 94 120 0
2642 -1.3422199487686157 1.2078299522399902 0.4609360098838806 46 44 55 0
2643 -1.305340051651001 1.176300048828125 0.4705820083618164 85 79 93 0
2644 -1.3987300395965576 1.2027699947357178 0.4352850019931793 48 39 44 0
2645 -0.48182401061058044 2.072240114212036 -0.36889898777008057 22 17 24 0
2646 -0.5678899884223938 2.103790044784546 -0.40272900462150574 70 67 78 0
2647 -0.49654000997543335 2.1855199337005615 -0.551613986492157 109 101 124 0
2648 -0.37658798694610596 2.124769926071167 -1.0662800073623657 22 16 26 0
2649 -0.827023983001709 2.2467100620269775 -0.35486000776290894 9 4 11 0
2650 -0.8258339762687683 2.24114990234375 -0.3528420031070709 7 2 9 0
2651 -1.473680019378662 1.016759991645813 0.6078789830207825 16 7 8 0
2652 -1.4026199579238892 1.0977599620819092 0.47954100370407104 132 45 28 0
2653 -1.5170700550079346 1.1437100172042847 0.5153759717941284 55 46 51 0
2654 -1.4757800102233887 1.2193299531936646 0.4114510118961334 43 42 48 0
2655 -0.44530999660491943 1.3926899433135986 -1.4916900396347046 18 11 18 0
2656 -0.44558700919151306 1.3949899673461914 -1.5006400346755981 17 12 19 0
2657 -0.44634300470352173 1.412369966506958 -1.6176999807357788 24 23 31 0
2658 -0.38690999150276184 2.163640022277832 -0.8948490023612976 29 21 32 0
2659 -0.7160900235176086 2.142669916152954 -0.45967400074005127 42 36 40 0
2660 -0.7154669761657715 2.1365599632263184 -0.4569070041179657 71 65 75 0
2661 -0.8592709898948669 2.2766900062561035 -0.39034199714660645 21 20 25 0
2662 -0.3771679997444153 2.0677199363708496 -0.3329769968986511 49 44 51 0
2663 -0.3499029874801636 2.0429699420928955 -0.8825259804725647 36 26 37 0
2664 -0.2874769866466522 2.141930103302002 -0.6041799783706665 36 29 37 0
2665 -0.318338006734848 2.110729932785034 -0.5881400108337402 20 15 22 0
2666 -1.659019947052002 1.7479000091552734 0.2997010052204132 29 24 30 0
2667 -0.5540649890899658 2.099529981613159 -0.3992469906806946 70 67 78 0
2668 -0.6373460292816162 2.1166300773620605 -0.427293986082077 55 54 62 0
2669 -0.49905699491500854 2.1504299640655518 -0.5386040210723877 103 89 104 0
2670 -0.22649000585079193 2.402359962463379 -0.037530701607465744 26 24 29 0
2671 -1.4629499912261963 2.00639009475708 0.07890769839286804 26 23 30 0
2672 -0.2257789969444275 2.409019947052002 -0.035658400505781174 44 39 45 0
2673 -0.22599099576473236 2.4090800285339355 -0.03404869884252548 44 39 45 0
2674 -0.22683200240135193 2.4102001190185547 -0.03438980132341385 44 39 45 0
2675 -1.4895700216293335 2.035629987716675 0.0806707963347435 26 23 32 0
2676 -1.3520100116729736 2.1432299613952637 -0.17112399637699127 24 21 30 0
2677 -1.3130600452423096 2.087980031967163 -0.1595200002193451 27 22 29 0
2678 -1.0906599760055542 0.9224050045013428 0.9782760143280029 53 50 59 0
2679 -1.711859941482544 1.4055299758911133 0.4302409887313843 28 23 29 0
2680 -1.3994499444961548 1.1725800037384033 0.4282839894294739 45 16 0 0
2681 -1.4439400434494019 1.0797799825668335 0.38547900319099426 92 83 104 0
2682 -1.423050045967102 1.1622400283813477 0.41820499300956726 96 76 87 0
2683 -1.4738600254058838 1.1157100200653076 0.37754300236701965 124 115 134 0
2684 -1.5573300123214722 1.0026299953460693 0.40418699383735657 55 52 61 0
2685 -1.5553300380706787 1.0073200464248657 0.39721301198005676 65 60 66 0
2686 -1.5227199792861938 1.0302300453186035 0.344650000333786 61 59 64 0
2687 -1.4923299551010132 1.0274399518966675 0.320497989654541 48 43 49 0
2688 -1.3459500074386597 2.125420093536377 -0.16436700522899628 24 21 28 0
2689 -1.3344700336456299 1.200350046157837 0.46035000681877136 57 54 63 0
2690 -1.6311999559402466 0.30040499567985535 0.16355299949645996 157 150 168 0
2691 -1.356469988822937 1.1476199626922607 0.5526790022850037 113 101 125 0
2692 -1.3479199409484863 1.2103400230407715 0.4637089967727661 38 37 45 0
2693 -1.389490008354187 1.0262399911880493 0.7836869955062866 17 12 18 0
2694 -1.3558599948883057 1.1504100561141968 0.557437002658844 99 92 110 0
2695 -1.3261699676513672 1.1317800283432007 0.5374559760093689 85 77 92 0
2696 -1.6847599744796753 0.3070729970932007 0.1835159957408905 76 74 96 0
2697 -1.650730013847351 0.3142560124397278 0.17748400568962097 76 74 96 0
2698 -1.3564399480819702 1.1393200159072876 0.5582039952278137 89 81 94 0
2699 -1.3608800172805786 1.136639952659607 0.5578410029411316 89 81 94 0
2700 -1.3636200428009033 1.1424200534820557 0.5638790130615234 71 65 75 0
2701 -1.377210021018982 1.0659699440002441 0.7074739933013916 95 88 104 0
2702 -1.4006099700927734 1.076200008392334 0.7335929870605469 39 34 41 0
2703 -1.6400099992752075 0.33038198947906494 0.1834000051021576 145 137 150 0
2704 -1.6691299676895142 0.32490599155426025 0.187950000166893 24 29 51 0
2705 -1.6659899950027466 0.33406901359558105 0.19258500635623932 35 40 62 0
2706 -1.3738499879837036 1.134220004081726 0.5607579946517944 65 60 67 0
2707 -1.3930200338363647 1.124019980430603 0.47598299384117126 42 41 75 0
2708 -1.3920899629592896 1.0573999881744385 0.720441997051239 58 55 66 0
2709 -1.389840006828308 1.1387900114059448 0.4576050043106079 178 147 163 0
2710 -1.3790299892425537 1.1005500555038452 0.47812598943710327 78 70 107 0
2711 -1.368749976158142 1.1296700239181519 0.43677499890327454 138 83 76 0
2712 -1.4229600429534912 1.1216299533843994 0.5124199986457825 84 80 113 0
2713 -1.3736399412155151 1.0928699970245361 0.48903700709342957 78 75 106 0
2714 -1.3990399837493896 1.0518900156021118 0.7290989756584167 82 78 93 0
2715 -1.3063100576400757 0.6167420148849487 0.7404540181159973 18 17 95 0
2716 -1.360360026359558 0.783070981502533 0.6817939877510071 50 49 106 0
2717 -1.3570300340652466 0.7455260157585144 0.6543020009994507 39 36 105 0
2718 -1.3625099658966064 0.8176500201225281 0.6816920042037964 16 17 82 0
2719 -1.4210200309753418 0.7693700194358826 0.4671280086040497 25 23 73 0
2720 -1.4324899911880493 0.650210976600647 0.3360939919948578 34 33 41 0
2721 -1.4719200134277344 1.0879600048065186 0.35068100690841675 87 85 106 0
2722 -1.4942899942398071 1.0356999635696411 0.4967859983444214 131 120 92 0
2723 -1.5002800226211548 1.023550033569336 0.4704200029373169 133 117 83 0
2724 -1.5070300102233887 1.0254499912261963 0.4665890038013458 149 82 73 0
2725 -1.2479900121688843 0.5953099727630615 0.9553999900817871 31 29 92 0
2726 -1.2301000356674194 0.6530389785766602 1.156000018119812 92 86 98 0
2727 -1.288390040397644 0.6366810202598572 0.798973023891449 9 7 44 0
2728 -1.28997004032135 0.5950250029563904 0.7589989900588989 28 28 102 0
2729 -1.302899956703186 0.6930620074272156 0.7983719706535339 33 31 96 0
2730 -1.296970009803772 0.4944939911365509 0.6892560124397278 38 34 93 0
2731 0.12811599671840668 -0.8390769958496094 2.004930019378662 10 9 15 0
2732 -1.2197999954223633 0.21787899732589722 0.8493229746818542 15 12 19 0
2733 0.13594399392604828 -0.6878550052642822 2.0963900089263916 35 33 38 0
2734 -0.005309689790010452 -0.6700599789619446 2.079859972000122 115 114 130 0
2735 -0.005183860193938017 -0.6693050265312195 2.096060037612915 91 88 105 0
2736 -0.0006486970232799649 -0.04004409909248352 2.4634599685668945 14 13 19 0
2737 -1.0621999502182007 0.863182008266449 1.9478299617767334 38 37 45 0
2738 -1.3654099702835083 0.9223979711532593 1.8179399967193604 24 26 49 0
2739 -1.2472000122070312 0.9498590230941772 1.9194600582122803 42 40 51 0
2740 -1.3968700170516968 0.9183019995689392 1.8633300065994263 54 53 69 0
2741 -1.2633800506591797 0.7303469777107239 2.2373600006103516 65 62 69 0
2742 -1.0631999969482422 0.8295779824256897 2.2165799140930176 83 82 90 0
2743 -1.0632100105285645 0.8290899991989136 2.211819887161255 40 37 46 0
2744 -1.4917700290679932 1.029829978942871 0.5731120109558105 12 7 13 0
2745 0.0012419900158420205 -0.11828699707984924 2.380690097808838 35 30 34 0
2746 0.004570929799228907 -0.12709499895572662 2.424449920654297 39 36 43 0
2747 0.0008935080259107053 -0.12514999508857727 2.4125499725341797 38 37 45 0
2748 -1.3578399419784546 0.7124699950218201 0.6323699951171875 12 10 31 0
2749 -1.295490026473999 0.49764400720596313 0.6829040050506592 36 31 97 0
2750 -1.3188999891281128 0.5811840295791626 0.6660680174827576 51 47 108 0
2751 -1.351989984512329 0.7031069993972778 0.6401360034942627 9 8 42 0
2752 -1.317870020866394 0.5729799866676331 0.6708800196647644 25 27 104 0
2753 -1.3226699829101562 0.5851240158081055 0.6706560254096985 54 53 119 0
2754 -1.3208600282669067 0.5851029753684998 0.6685150265693665 59 57 122 0
2755 -1.2769299745559692 0.41410401463508606 0.6270560026168823 118 124 186 0
2756 -1.3823399543762207 0.7186070084571838 0.5467619895935059 40 43 98 0
2757 -1.3703700304031372 0.6384419798851013 0.5749120116233826 59 57 122 0
2758 -1.375100016593933 0.7017679810523987 0.5546680092811584 2 3 93 0
2759 -0.0022531200665980577 -0.12043499946594238 2.350069999694824 27 26 34 0
2760 -1.2856800556182861 0.9348499774932861 1.8907099962234497 45 43 65 0
2761 -1.2689800262451172 0.9285060167312622 1.9241000413894653 58 53 75 0
2762 -1.1738500595092773 0.8729029893875122 1.9546300172805786 54 55 75 0
2763 -1.4871400594711304 0.9899309873580933 1.9914699792861938 41 40 54 0
2764 -1.422260046005249 0.9453629851341248 1.8947800397872925 40 39 53 0
2765 -0.921800971031189 0.789726972579956 2.062540054321289 38 35 42 0
2766 -1.2738399505615234 0.74788898229599 2.182389974594116 33 32 40 0
2767 -1.2747999429702759 0.751541018486023 2.1887600421905518 43 41 52 0
2768 -1.2743200063705444 0.744828999042511 2.182149887084961 45 44 52 0
2769 -1.2833000421524048 0.7526140213012695 2.1988699436187744 47 46 54 0
2770 -1.4132000207901 0.7624040246009827 2.174949884414673 48 47 63 0
2771 -1.0982400178909302 0.8467479944229126 2.3068199157714844 38 36 41 0
2772 0.0036177400033921003 0.47640401124954224 2.754810094833374 28 26 31 0
2773 -1.1785199642181396 0.9099469780921936 2.216520071029663 57 54 63 0
2774 -1.4257800579071045 1.00246000289917 2.230609893798828 85 84 102 0
2775 -0.39123600721359253 0.8332549929618835 2.7573599815368652 37 35 46 0
2776 -0.4388189911842346 0.8509349822998047 2.779279947280884 69 66 73 0
2777 -0.38317298889160156 0.8286749720573425 2.7492001056671143 73 66 74 0
2778 -0.473704993724823 0.8547170162200928 2.7567200660705566 59 52 59 0
2779 -1.187250018119812 1.0180799961090088 0.7730690240859985 114 101 119 0
2780 -1.2300200462341309 1.0034500360488892 0.7768170237541199 122 115 131 0
2781 -1.2188400030136108 0.9894570112228394 0.7650529742240906 102 91 107 0
2782 -1.3051999807357788 0.6738439798355103 0.780335009098053 38 33 99 0
2783 -1.6310100555419922 -0.045549798756837845 0.773222029209137 26 24 29 0
2784 -1.1985399723052979 0.9772970080375671 0.773389995098114 78 76 98 0
2785 -1.1520800590515137 1.0219000577926636 0.8226770162582397 176 161 182 0
2786 -1.1512600183486938 1.0181900262832642 0.826928973197937 161 143 155 0
2787 -1.090499997138977 0.9641420245170593 0.7908430099487305 175 158 174 0
2788 -1.2606799602508545 0.5289829969406128 0.8495230078697205 11 10 44 0
2789 -1.1027499437332153 0.9728170037269592 0.8168969750404358 168 159 180 0
2790 -1.4179799556732178 1.11627995967865 0.48047301173210144 140 83 92 0
2791 -1.3942899703979492 1.1593799591064453 0.43102800846099854 74 38 26 0
2792 -1.4146599769592285 1.133180022239685 0.43884599208831787 116 104 118 0
2793 -1.4182699918746948 1.1003899574279785 0.5406320095062256 40 31 34 0
2794 -1.4605599641799927 1.1173700094223022 0.47273901104927063 35 52 62 0
2795 -1.429900050163269 1.170699954032898 0.4217030107975006 100 86 101 0
2796 -1.4496500492095947 1.1053500175476074 0.37113600969314575 118 108 132 0
2797 -1.4631099700927734 1.0445499420166016 0.34225699305534363 108 59 55 0
2798 -1.4513200521469116 1.1078100204467773 0.36652401089668274 94 91 108 0
2799 -1.5440000295639038 0.9753569960594177 0.4329330027103424 88 84 101 0
2800 -1.308019995689392 0.5852550268173218 0.720740020275116 20 21 103 0
2801 -1.290120005607605 0.6420300006866455 0.8336449861526489 23 22 80 0
2802 -1.401039958000183 0.49964699149131775 0.40590700507164 160 150 174 0
2803 -1.2192699909210205 0.5509120225906372 0.994862973690033 38 35 88 0
2804 -1.6600600481033325 0.4617150127887726 0.2645840048789978 77 73 87 0
2805 -1.3449300527572632 1.1413899660110474 0.42782101035118103 72 61 78 0
2806 -1.3686699867248535 1.103060007095337 0.4695320129394531 142 137 167 0
2807 -1.4020099639892578 1.0964200496673584 0.5086479783058167 63 64 108 0
2808 -1.3975499868392944 1.1173499822616577 0.4777350127696991 166 142 168 0
2809 -1.4616400003433228 1.1665300130844116 0.4925979971885681 162 137 158 0
2810 -1.4094899892807007 1.1101800203323364 0.47647199034690857 124 52 53 0
2811 -1.4150199890136719 0.5757049918174744 0.2875550091266632 92 87 107 0
2812 -1.41621994972229 0.5626310110092163 0.3062160015106201 138 130 154 0
2813 -1.40201997756958 0.5633220076560974 0.29895201325416565 141 133 156 0
2814 -1.3963700532913208 0.633545994758606 0.4101699888706207 38 33 53 0
2815 -1.403090000152588 0.6371449828147888 0.4130750000476837 45 44 78 0
2816 -1.401859998703003 0.641094982624054 0.4046100080013275 53 49 76 0
2817 -1.5265899896621704 1.0240999460220337 0.35374701023101807 58 56 59 0
2818 -1.4906200170516968 1.0221799612045288 0.3243210017681122 59 54 60 0
2819 -0.36188599467277527 2.087100028991699 -0.9057930111885071 17 10 18 0
2820 -0.395456999540329 2.1591100692749023 -0.9959020018577576 26 21 27 0
2821 -1.3406200408935547 2.125030040740967 -0.16676799952983856 25 20 27 0
2822 -1.350100040435791 1.092039942741394 0.49230799078941345 47 42 64 0
2823 -1.3448100090026855 1.0881600379943848 0.4895249903202057 47 42 64 0
2824 -1.3630000352859497 1.1077300310134888 0.495945006608963 41 29 39 0
2825 -1.344539999961853 1.0923399925231934 0.4932920038700104 101 92 113 0
2826 -1.4088900089263916 1.096690058708191 0.5297200083732605 137 127 152 0
2827 -1.4804999828338623 1.0814399719238281 0.426129013299942 131 116 139 0
2828 -1.390120029449463 1.1118500232696533 0.481128990650177 48 43 83 0
2829 -1.3872400522232056 1.1164400577545166 0.4777590036392212 100 99 139 0
2830 -1.4256099462509155 1.1118199825286865 0.49029698967933655 129 51 39 0
2831 -1.367110013961792 1.0924299955368042 0.474373996257782 66 56 90 0
2832 -1.3909200429916382 1.1407899856567383 0.5700590014457703 33 28 34 0
2833 -1.3460099697113037 1.11257004737854 0.4336499869823456 67 35 38 0
2834 -1.4211299419403076 1.1081600189208984 0.4898490011692047 126 48 36 0
2835 -1.3421599864959717 1.1496700048446655 0.4850359857082367 56 48 63 0
2836 -1.4036200046539307 1.118749976158142 0.5429289937019348 64 57 64 0
2837 -1.3995699882507324 1.1143900156021118 0.5404760241508484 64 57 64 0
2838 -1.4197900295257568 1.145300030708313 0.5507950186729431 135 124 138 0
2839 -1.488450050354004 1.07778000831604 0.42120400071144104 81 70 84 0
2840 -1.3736399412155151 1.1073399782180786 0.4710339903831482 27 25 64 0
2841 -0.742160975933075 0.9553589820861816 -1.128890037536621 108 99 116 0
2842 -1.5379799604415894 1.187250018119812 0.5446850061416626 134 68 70 0
2843 -1.7341200113296509 0.40205100178718567 0.4647429883480072 27 24 33 0
2844 -1.4243500232696533 1.1552900075912476 0.43946701288223267 153 82 86 0
2845 -1.4150099754333496 1.0998599529266357 0.4790689945220947 176 127 157 0
2846 -1.4363900423049927 1.087499976158142 0.5116519927978516 145 132 142 0
2847 -1.4651600122451782 1.082900047302246 0.43748798966407776 25 43 55 0
2848 -1.7025400400161743 0.505964994430542 0.4586609899997711 23 20 29 0
2849 -1.4329700469970703 1.112589955329895 0.47045400738716125 130 111 131 0
2850 -1.4302799701690674 1.1719399690628052 0.42305898666381836 101 87 102 0
2851 -1.4720799922943115 1.0556399822235107 0.34223800897598267 93 25 4 0
2852 -1.5248899459838867 0.9755200147628784 0.5580739974975586 43 37 37 0
2853 -1.4553699493408203 1.0727699995040894 0.422435998916626 130 120 147 0
2854 -1.3790700435638428 1.1195199489593506 0.46921101212501526 127 123 156 0
2855 -1.5146900415420532 1.0364500284194946 0.3307900130748749 60 55 62 0
2856 -1.35139000415802 1.11735999584198 0.4365580081939697 59 39 51 0
2857 -1.4705300331115723 1.0784200429916382 0.4081589877605438 130 117 135 0
2858 0.6613799929618835 2.054919958114624 -0.6383169889450073 126 110 123 0
2859 0.4765770137310028 2.0835399627685547 -0.49583700299263 107 95 107 0
2860 0.658810019493103 2.0515201091766357 -0.6377440094947815 124 110 123 0
2861 0.5422210097312927 1.7336499691009521 -1.3088300228118896 45 37 48 0
2862 0.6022819876670837 2.115880012512207 -0.7160930037498474 89 79 88 0
2863 0.6850659847259521 2.07846999168396 -0.7260559797286987 96 82 79 0
2864 0.5084229707717896 1.7419699430465698 -1.2458100318908691 52 44 57 0
