ply
format ascii 1.0
element vertex 1266
property float x
property float y
property float z
property uchar red
property uchar green
property uchar blue
element edge 0
property int vertex1
property int vertex2
property uchar red
property uchar green
property uchar blue
end_header
-0.593963 0.468572 0.225168 140 128 150
-0.598044 0.475391 0.221805 126 117 138
-0.588885 0.47118 0.228074 90 82 95
-0.598408 0.46412 0.221516 168 161 194
-0.616107 0.505325 0.240456 35 32 41
0.192171 0.853134 -0.423113 33 28 35
0.186193 0.9099 -0.224145 78 73 79
0.210564 0.921798 -0.255582 28 23 29
0.24315 0.895041 -0.298489 64 57 64
-0.563536 0.641115 0.237066 42 36 48
-0.0455569 0.9343 -0.235508 23 18 25
0.0281422 0.850437 -0.0618952 18 13 20
-0.587729 0.679606 0.15623 55 47 58
-0.607604 0.467204 0.2269 74 68 70
-0.603492 0.483946 0.190136 159 133 162
-0.595084 0.464598 0.218603 128 130 178
-0.55849 0.460849 0.290783 151 143 166
-0.590806 0.482358 0.233978 39 33 43
-0.656933 0.521696 0.161116 56 53 62
-0.612381 0.476736 0.204886 180 131 161
-0.423122 0.754972 0.183994 51 44 52
-0.421422 0.688544 0.261734 54 46 57
-0.621351 0.469126 0.220256 160 146 161
-0.559396 0.458465 0.292005 85 80 100
-0.548381 0.461604 0.291832 36 39 56
-0.548272 0.463932 0.292478 20 19 27
-0.0234275 0.616861 -0.573785 64 53 67
-0.551308 0.463231 0.292991 42 47 67
-0.615199 0.455471 0.239457 185 150 128
-0.518785 0.448198 0.285679 99 88 92
-0.532935 0.459375 0.291855 24 23 29
-0.53191 0.461442 0.291903 97 92 98
-0.390181 0.736112 0.22451 55 45 56
0.494584 0.834272 -0.273892 107 94 101
0.401044 0.357619 0.336417 43 23 34
0.393593 0.352189 0.373352 96 88 103
0.384248 0.327222 0.348381 142 134 158
-0.548494 0.462193 0.289366 56 54 65
-0.559832 0.456548 0.290913 82 74 89
-0.624671 0.460027 0.191806 23 42 57
-0.549666 0.462968 0.290342 34 34 46
-0.557136 0.464065 0.291435 143 138 161
-0.541517 0.64392 0.301166 11 9 12
0.252687 0.889923 -0.233438 108 98 107
0.264692 0.619376 -0.719498 18 13 20
-0.31397 0.39319 -0.491032 101 105 130
-0.135783 0.883346 -0.123708 24 19 26
-0.524777 0.647715 0.264299 51 43 54
0.036048 0.847986 -0.0562686 21 18 27
-0.599677 0.637562 0.203709 46 40 50
-0.398911 0.69914 0.266005 47 41 53
-0.586132 0.45434 0.300733 117 108 129
-0.621546 0.458308 0.190819 21 42 59
-0.628194 0.46141 0.182946 125 113 137
-0.534204 0.458085 0.289994 23 22 28
-0.63555 0.462819 0.229995 95 67 63
-0.599774 0.486837 0.240245 112 105 113
-0.544687 0.464421 0.294758 95 93 115
-0.599948 0.488231 0.239601 117 111 121
-0.620126 0.457565 0.190624 26 44 58
-0.621362 0.46956 0.219963 148 134 149
-0.634524 0.477278 0.220263 62 47 44
-0.558455 0.464361 0.291209 136 132 157
-0.549888 0.462916 0.290082 57 55 66
-0.533878 0.460762 0.295042 76 64 64
-0.530858 0.45812 0.290307 24 23 29
0.501277 0.685357 -0.0754427 110 95 98
-0.00549111 0.814274 -0.407082 31 23 34
0.516517 0.783242 -0.182116 96 87 90
0.516069 0.955405 -0.356517 63 56 63
0.396303 0.93675 -0.328242 90 81 86
0.0557679 0.8116 -0.413024 58 50 63
-0.62165 0.468667 0.211265 135 124 140
0.623283 0.789816 -0.341031 107 93 93
-0.646733 0.478749 0.19132 75 73 87
-0.598242 0.463645 0.206336 135 46 28
-0.103115 1.04207 -0.00370319 16 9 16
0.336875 0.867021 -0.269729 110 97 104
0.320875 0.871186 -0.243785 125 106 108
0.181715 0.609006 -0.799643 19 18 26
0.257304 0.906414 -0.4329 32 27 34
-0.163524 0.603504 -0.687535 47 41 51
0.383546 0.951383 -0.338428 112 97 102
0.294917 0.873828 -0.226473 97 82 85
-0.312631 0.449878 -0.457167 48 49 67
0.515359 0.754039 -0.193189 93 86 94
0.459294 0.794148 -0.0770412 101 88 97
0.460963 0.754319 -0.0748072 114 104 112
0.334858 0.885358 -0.1569 18 17 23
-0.0432928 0.595496 -0.624545 64 53 67
0.513116 0.699708 -0.208826 70 63 70
0.548537 0.787946 -0.21576 32 26 28
0.534163 0.741212 -0.206148 124 109 116
0.468181 0.759632 -0.0959444 104 92 102
0.480247 0.751736 -0.116504 84 73 77
0.485368 0.61412 -0.638479 17 16 24
0.371342 0.945196 -0.350063 85 76 81
-0.0459172 0.574299 -0.605578 66 57 74
-0.0427509 0.709165 -0.856451 15 12 19
0.187311 0.593722 -0.713395 59 52 68
-0.208577 0.663598 -0.617772 20 19 27
0.179935 0.621911 -0.602598 72 64 79
0.477223 0.62241 -0.0676758 118 103 108
0.236294 0.879405 -0.410677 63 55 68
0.0726713 0.691594 -0.804516 26 23 30
-0.215204 0.55063 -0.655158 25 24 32
0.520277 0.834548 -0.279214 78 67 71
0.335403 0.887131 -0.282625 80 71 76
-0.597188 0.482131 0.194279 151 116 138
-0.407235 0.84341 0.0457728 44 36 47
-0.593809 0.481316 0.192019 140 63 55
-0.57795 0.468665 0.208893 42 29 39
-0.5913 0.465103 0.224935 139 127 147
-0.437583 0.741825 0.189035 53 45 56
-0.348349 0.850099 0.0158167 45 39 49
-0.573502 0.668979 0.171899 56 48 61
0.287161 0.881153 -0.230035 116 103 113
0.503307 0.812062 -0.160506 77 68 71
0.503877 0.863489 -0.330607 85 76 81
0.553945 0.856397 -0.387329 58 52 54
0.480356 0.898321 -0.287401 71 65 67
0.455898 0.879128 -0.237272 111 96 99
0.323698 0.874931 -0.253642 125 108 116
-0.314087 0.332446 -0.52026 81 82 103
0.38035 0.884039 -0.245042 112 99 108
0.287682 0.88262 -0.248186 83 74 75
-0.000798162 0.813418 -0.42748 54 46 59
0.222649 0.867724 -0.22613 116 103 113
0.404547 0.347243 0.316803 118 104 119
0.532076 0.711218 -0.181989 161 142 146
0.542473 0.695794 -0.165254 91 78 85
-0.3119 0.7146 -0.326033 53 52 60
0.474026 0.797509 -0.091791 95 84 90
0.570005 0.828161 -0.381114 95 85 94
0.310709 0.874769 -0.219294 131 115 125
-0.101983 0.61128 -0.673822 64 54 63
0.220381 0.879988 -0.18276 98 90 103
-0.577312 0.789357 0.085045 50 44 54
0.454159 0.703434 0.0238687 52 44 42
-0.117942 0.872331 -0.11949 30 27 34
0.0160488 0.811033 -0.429248 57 49 62
-0.696601 0.74686 0.126328 10 5 11
-0.608494 0.79574 -0.0156818 3 0 7
-0.570352 0.474991 0.198107 38 37 55
-0.560071 0.460889 0.207735 45 30 33
-0.603917 0.474752 0.204042 126 55 51
-0.0784498 0.866413 -0.105454 29 28 34
0.449669 0.719467 0.048505 81 72 77
-0.623968 0.463748 0.173878 97 85 107
-0.635835 0.46935 0.173029 132 121 138
-0.563658 0.471951 0.192182 85 76 95
-0.60127 0.459963 0.212094 136 54 42
-0.646965 0.487776 0.222104 87 72 79
-0.419258 0.871147 -0.0600503 33 26 34
-0.512321 0.74425 0.143139 51 45 55
-0.64506 0.469307 0.231479 102 69 52
-0.636769 0.46121 0.179093 84 76 91
-0.612458 0.815028 -0.0269655 4 1 8
-0.582883 0.918962 -0.0723994 25 20 27
-0.554675 0.499299 0.199474 49 48 56
-0.599691 0.480152 0.206642 45 44 86
-0.601205 0.456533 0.211298 132 69 86
-0.583095 0.475318 0.194425 136 129 160
-0.467524 0.721832 0.19142 49 41 52
-0.612566 0.469502 0.160103 113 96 115
-0.637278 0.465685 0.146578 95 86 105
-0.642869 0.517149 0.165514 2 0 5
-0.112808 1.01557 -0.000715454 8 3 9
-0.124016 0.910769 -0.251943 18 12 22
0.00128713 0.812885 -0.413645 57 49 62
-0.0273056 0.82455 -0.384798 29 21 32
0.606559 0.721892 -0.244011 133 116 122
0.632034 0.745781 -0.258351 113 97 100
0.477723 0.945384 -0.351336 93 84 89
0.508985 0.86722 -0.353657 82 75 82
0.467522 0.792265 -0.0878524 95 84 90
0.533797 0.694742 -0.134254 101 87 87
0.530702 0.706092 -0.150272 87 75 75
0.608708 0.77454 -0.280002 120 105 110
0.666189 0.732343 -0.275344 95 82 76
-0.314556 0.368901 -0.509198 127 128 156
0.623349 0.761347 -0.28763 130 109 114
0.571341 0.724605 -0.230983 70 61 62
0.560355 0.733858 -0.264042 113 98 105
0.517607 0.816293 -0.317008 84 72 72
0.649357 0.786283 -0.381769 70 59 55
0.50319 0.669344 0.0724826 63 57 59
0.551998 0.596108 -0.016944 91 80 86
0.503237 0.866233 -0.199211 99 89 90
0.533833 0.818283 -0.320965 114 95 97
0.425528 0.873798 -0.204147 113 97 100
0.22712 0.560848 0.425532 57 54 63
0.179282 0.348778 0.6653 69 68 76
0.252028 0.220265 0.637015 79 73 83
0.173437 0.722508 0.624053 102 95 113
-0.14516 0.873359 -0.467894 13 6 14
0.437342 0.808823 -0.0469908 101 94 101
-0.484223 0.570791 -0.474715 5 2 9
0.0121611 0.857221 -0.097539 36 33 40
0.495094 0.741184 -0.155339 90 78 78
0.787842 0.482443 -0.554544 24 18 18
0.641523 0.726077 -0.22001 51 43 41
0.534023 0.609839 -0.0174823 93 80 87
0.447361 0.735008 -0.0032489 105 93 103
0.6484 0.744828 -0.302444 110 94 95
0.634981 0.756403 -0.308823 114 98 99
0.681493 0.752625 -0.351207 88 77 75
0.466842 0.802816 -0.0894819 101 90 96
0.0584086 0.829118 -0.333293 54 46 59
-0.0659471 0.630728 -0.559478 49 41 54
0.280877 0.886902 -0.14952 41 40 48
-0.312655 0.573793 -0.403523 74 72 86
-0.173636 0.604617 -0.683955 50 44 56
0.444497 0.773203 -0.0365423 109 98 104
0.367258 0.759356 -0.615608 21 16 23
0.487964 0.770549 -0.128903 106 94 98
0.665999 0.757752 -0.338759 119 101 97
-0.0653764 0.609608 -0.67195 42 34 47
0.307173 0.882928 -0.260524 83 73 74
0.0559228 0.63892 -0.55579 55 47 62
0.243349 0.631766 -0.648314 8 5 14
0.462743 0.828052 -0.527168 21 18 25
0.236892 0.596968 -0.690989 26 21 27
0.520988 0.819247 -0.319679 75 63 63
-0.161734 0.600589 -0.680031 45 37 50
-0.0357117 0.596802 -0.629339 62 54 69
0.235624 0.663912 -0.615904 65 57 68
-0.312885 0.402081 -0.512316 87 91 116
-0.313177 0.390633 -0.489623 117 109 122
0.597104 0.731239 -0.248875 111 96 103
-0.314451 0.351782 -0.522741 94 90 113
0.439811 0.876086 -0.229917 116 99 105
0.483851 0.882014 -0.164402 84 79 85
0.190851 0.656568 -0.796215 11 10 18
0.338902 0.883796 -0.228127 83 72 76
-0.0418596 0.733964 -0.839054 20 15 22
0.0549555 0.837451 -0.0564568 71 66 72
0.491051 0.872657 -0.17166 95 88 95
0.251761 0.883963 -0.148907 45 40 44
0.33119 0.893266 -0.168563 44 41 48
0.363395 0.871841 -0.216436 104 92 96
0.320452 0.880687 -0.188411 120 107 116
-0.583263 1.03265 -0.174166 34 29 36
0.245034 0.884961 -0.266558 86 77 80
0.787438 0.482158 -0.554244 49 43 45
-0.154103 0.895569 -0.304277 41 33 44
0.772897 0.532892 -0.486064 25 21 22
0.600797 0.794914 -0.321218 106 91 94
0.523195 0.62991 0.043665 62 53 54
0.243511 0.794627 -0.549956 49 41 52
0.262533 0.375675 0.775978 15 10 16
0.258206 0.283631 0.733024 13 8 15
-0.311212 0.584389 -0.374357 61 59 70
0.435863 0.88905 -0.161568 50 48 53
-0.00639675 0.622188 -0.69307 61 55 65
-0.314389 0.360024 -0.510858 154 139 160
0.0313657 0.723257 -0.838388 15 12 19
0.47309 0.654126 0.0282162 66 57 58
-0.312509 0.428516 -0.422079 109 103 117
-0.493632 0.776497 0.126868 50 42 53
0.399817 0.861644 0.298481 23 18 22
0.453742 0.644959 -0.635605 15 13 18
-0.229151 0.54619 -0.625715 23 22 30
0.563609 0.809591 -0.349966 108 93 96
0.530252 0.880043 -0.386699 73 64 67
0.545287 0.681869 -0.142925 69 58 54
0.468649 0.793405 -0.0884391 110 97 104
0.357527 0.703627 -0.653398 18 15 22
-0.134857 0.872614 -0.373829 15 8 16
-0.0599885 0.676334 -0.88519 18 13 19
-0.0340738 0.615231 -0.682104 58 52 62
0.0109349 0.61245 -0.687573 7 0 10
0.297572 0.883078 -0.181425 83 74 79
-0.182438 0.922909 -0.260985 41 34 42
0.468308 0.655154 0.0154487 89 80 83
-0.232596 0.444245 -0.662004 26 23 32
0.787666 0.625633 -0.47347 56 51 55
0.352428 0.876004 -0.257249 127 108 112
0.450862 0.817893 -0.075883 103 93 101
0.00334882 0.600159 -0.600616 70 61 78
-0.230247 0.564036 -0.639199 23 22 30
-0.11138 0.598724 -0.608505 63 55 68
0.446876 0.715966 0.0494502 65 59 63
0.494418 0.86991 -0.197106 80 70 69
0.410138 0.841866 -0.225252 109 93 94
0.531497 0.925281 -0.336328 25 19 19
0.623572 0.612497 -0.0662695 106 101 123
0.420903 0.599867 0.421691 59 69 79
0.288978 0.858095 0.301461 103 95 106
0.595873 0.57855 -0.00813469 106 99 117
0.388918 0.333241 0.341289 142 130 152
0.594221 0.728845 -0.212218 52 43 44
0.583601 0.622635 0.0464991 29 27 32
0.288953 0.860213 0.303053 70 60 69
0.496479 0.662927 -0.0490137 122 107 114
0.440359 0.732768 -0.04878 97 90 97
0.389365 0.364736 0.357647 102 80 82
0.669978 0.737401 -0.289539 91 78 72
0.644943 0.172788 -0.337984 24 18 20
0.377402 0.722475 -0.634793 19 13 23
0.379426 0.886547 -0.196759 105 94 102
0.112636 0.732251 0.45316 18 16 19
0.496426 0.657077 0.312777 51 48 55
-0.0942667 0.844788 -0.463534 13 7 11
0.562393 0.874638 -0.382737 103 92 96
0.224727 0.784488 -0.527503 30 23 30
0.130073 0.634342 -0.816117 19 16 23
0.411146 0.337387 0.337667 143 134 163
0.254262 0.868609 -0.508518 39 33 43
0.295648 0.78623 0.0362596 28 27 35
0.502909 0.830552 -0.250128 97 85 89
0.500068 0.659743 -0.0461602 64 54 55
0.345175 0.774528 0.0561052 51 46 53
0.509991 0.630086 -0.0274255 89 78 82
0.196649 0.831977 -0.474963 31 24 31
-0.0434451 0.595781 -0.624714 65 54 70
0.267056 0.588369 -0.721082 60 52 67
0.0675736 0.606061 -0.695381 6 3 14
0.52699 0.678221 -0.0841129 80 70 71
0.641425 0.767258 -0.385143 83 74 75
0.227251 0.700121 -0.578804 58 50 63
0.501166 0.624727 -0.0110855 117 102 109
0.49956 0.666501 -0.0646374 77 67 66
0.139916 0.827555 -0.0271883 63 58 65
0.590501 0.599005 0.0390863 26 23 30
-0.313293 0.333923 -0.519597 29 35 49
0.547675 0.617474 0.0281088 90 80 88
0.469742 0.794278 -0.12684 92 82 83
-0.0612598 0.832247 -0.386268 24 16 27
-0.309122 0.677495 -0.301045 15 13 24
0.79268 0.374668 -0.62199 53 46 53
0.505193 0.719561 -0.101139 90 75 70
0.512068 0.724569 -0.114145 128 109 111
-0.125663 0.601341 -0.649863 61 53 66
0.612579 0.114683 -0.241806 49 46 53
0.642182 0.722574 -0.265607 110 93 85
-0.164538 0.919953 -0.437548 23 13 22
0.553069 0.645529 -0.111753 94 83 89
0.515825 0.723914 -0.122074 140 121 125
-0.313962 0.260776 -0.557627 123 131 168
-0.216807 0.370589 -0.764292 14 9 15
-0.146869 0.888855 -0.380462 30 23 31
0.458284 0.696531 0.0282568 99 88 92
0.461916 0.77488 -0.0611118 105 94 100
0.672762 0.686774 -0.156652 22 17 21
0.475354 0.901468 -0.47971 23 18 24
0.696064 0.771533 -0.388286 59 53 55
-0.0530147 0.862194 -0.0963751 73 67 77
0.379929 0.944675 -0.333968 110 95 100
0.530912 0.820733 -0.204636 91 80 78
0.691977 0.711894 -0.173907 8 6 9
0.504795 0.944365 -0.348717 91 82 87
0.462397 0.991127 -0.441075 20 15 22
0.60137 0.753327 -0.249641 103 92 98
0.528292 0.641199 0.0626939 77 68 71
0.576724 0.581078 -0.0290147 105 93 103
-0.311484 0.531088 -0.423904 79 78 94
0.690164 0.831449 -0.395581 80 66 63
0.519274 0.618188 0.0253863 73 64 65
0.579892 0.552846 -0.624462 16 13 20
0.480265 0.644509 0.0273274 77 68 69
0.519107 0.624953 -0.061305 82 70 70
-0.087656 0.842133 -0.459728 39 33 43
-0.312379 0.309447 -0.423575 73 80 99
-0.284013 0.334732 -0.59027 25 24 32
0.449958 0.513486 0.32519 53 69 84
0.781704 0.519264 -0.501865 22 20 23
0.397885 0.884733 -0.274866 121 104 112
0.508275 0.736795 -0.140638 108 93 98
0.544806 0.818562 -0.233313 89 81 92
0.588673 0.746526 -0.226997 143 126 134
0.406924 0.345281 0.327707 55 48 64
0.351084 0.90082 -0.179466 27 26 31
0.488399 0.755456 -0.139929 133 116 126
0.467599 0.746615 -0.0803409 85 78 85
0.550452 0.673859 -0.145282 80 68 70
-0.562084 0.229013 0.286087 57 54 121
-0.379573 -0.229264 0.743923 5 3 8
-0.611974 0.439023 0.254081 62 43 36
-0.357339 0.400736 1.12005 64 61 70
-0.764507 0.0786592 0.197743 22 21 27
-0.529856 0.373851 0.397969 183 174 195
-0.600447 -0.0113043 0.39824 80 76 93
-0.7064 -0.0434575 -0.0238442 139 124 145
-0.525366 0.24892 0.430726 30 31 87
-0.6713 -0.067971 0.319991 24 21 28
-0.0806228 -0.534919 0.619043 12 11 17
-0.713397 -0.111771 -0.0612058 57 55 77
-0.600383 -0.458238 0.53154 72 68 83
-0.718648 0.164248 0.0959862 116 112 129
-0.517131 0.400923 0.364655 84 92 138
-0.5577 0.399935 0.382879 161 149 163
-0.535724 0.379355 0.387626 180 171 192
-0.700711 -0.0854476 0.295104 25 22 31
-0.468693 0.398397 0.393651 57 51 65
-0.585119 0.433739 0.333798 113 105 118
-0.565288 0.137948 0.446537 36 35 43
-0.672964 -0.116129 0.29087 25 22 31
-0.599902 -0.140069 0.323988 125 118 134
-0.539053 0.195688 0.345457 16 17 73
-0.555052 0.256537 0.329319 11 12 79
-0.55149 0.244182 0.297513 57 53 114
-0.549346 0.253552 0.328929 42 37 101
-0.071151 0.600033 -0.605095 65 54 68
-0.116853 -0.529897 0.663099 34 37 46
-0.535216 0.258914 0.506032 14 9 15
0.52005 0.713162 -0.115947 88 78 79
-0.483487 0.480987 -0.520753 16 13 20
0.288415 0.879168 -0.23103 119 103 113
-0.0128393 0.596351 -0.619225 68 60 75
-0.256379 0.37815 1.15458 74 71 82
-0.502858 0.367994 0.937429 26 24 29
-0.475181 0.317174 0.977219 52 49 58
-0.728461 0.177185 0.174844 21 20 28
-0.739774 0.186986 0.197556 25 22 31
0.00141543 -0.0104416 1.0628 26 23 30
-0.601141 0.0423076 0.427524 29 29 37
-0.614466 -0.1727 0.289083 28 27 35
-0.598156 0.244978 0.352034 13 12 70
-0.176337 0.883857 -0.143552 37 30 38
-0.179426 0.891934 -0.146812 62 59 68
-0.56674 0.788932 -0.0401339 3 0 7
-0.572362 0.514052 0.196346 52 49 60
-0.538728 0.640925 0.308263 19 17 22
-0.634944 0.800791 0.00863902 3 0 7
-0.592959 0.826935 -0.0537508 2 0 6
-0.55969 0.242301 0.30704 13 14 81
-0.791521 0.0125382 0.301773 17 14 21
-0.526439 0.18369 0.386092 39 35 94
-0.543526 0.385755 0.385257 173 161 175
-0.507339 0.290342 0.486667 146 136 160
0.068399 -0.289347 0.920167 43 41 46
-0.552504 0.274086 0.354675 30 25 89
-0.767369 0.0739405 0.206768 17 16 24
-0.579455 0.405438 0.373623 119 112 128
-0.647795 -0.0446413 0.336433 26 25 33
-0.597842 0.290442 0.198958 31 32 112
-0.737902 0.132041 0.164144 13 10 19
-0.628141 -0.0351773 0.360034 23 20 27
-0.604208 -0.111355 0.328549 26 23 30
-0.696756 -0.0987538 0.290029 23 20 27
0.120723 0.908742 -0.191654 14 11 18
-0.408011 0.701769 0.24923 53 47 57
-0.497829 0.689954 0.201124 50 44 54
-0.502864 0.646776 0.299436 51 43 54
-0.620873 0.633721 0.192166 53 43 54
-0.6138 0.468886 0.213617 186 140 169
-0.442441 0.667003 0.28621 53 43 54
-0.657603 0.421765 0.198579 75 65 74
-0.660898 0.417962 0.195735 73 60 67
-0.280584 0.815965 0.0172692 47 39 50
0.483577 0.451387 0.237117 62 63 81
-0.639411 -0.109455 0.31397 25 24 32
-0.578469 0.314173 0.298296 16 18 59
-0.0880711 0.350082 1.26112 37 32 39
-0.135087 0.882508 -0.128909 30 27 34
-0.1633 0.888456 -0.139937 75 70 77
-0.0890394 0.856908 -0.328658 46 38 51
-0.239484 0.891083 -0.165358 37 34 41
-0.0388133 0.860582 -0.091675 55 53 64
-0.000584934 0.850012 -0.076375 26 25 33
-0.73244 -0.0832415 -0.0399152 106 99 130
-0.549903 0.229179 0.334897 10 9 79
-0.724205 0.0129919 0.060121 21 18 27
-0.534487 0.215892 0.382124 12 12 66
-0.587074 0.433914 0.358165 120 112 133
-0.527022 0.220424 0.393702 6 9 44
-0.739811 0.212058 0.223505 23 22 30
-0.491695 0.3796 0.419844 140 131 160
-0.434752 0.382052 0.971987 85 82 91
-0.595146 0.734628 0.120083 53 45 56
-0.606927 0.637377 0.214093 46 39 47
-0.695196 0.796931 0.104794 42 37 44
-0.631117 0.438885 0.279356 35 30 24
-0.585523 0.64278 0.24809 5 0 6
-0.717924 0.636399 0.217845 16 11 18
-0.567025 0.240852 0.280671 67 63 124
-0.595833 0.0160257 0.409599 75 71 85
-0.599083 -0.109034 0.340906 128 126 148
-0.657979 0.737485 0.116831 43 38 45
-0.635535 0.462961 0.229315 74 60 59
-0.547374 0.401004 0.338415 152 145 161
-0.707571 0.752028 0.131937 1 0 4
-0.685197 0.391185 0.228726 57 52 59
0.0536268 -0.296125 0.860045 34 37 46
-0.500178 0.29019 0.492769 144 132 152
-0.658115 0.142321 0.813775 15 12 19
-0.596209 0.487059 0.225593 80 68 82
-0.648769 0.416735 0.23677 50 46 45
-0.653805 -0.14167 0.286534 20 18 23
-0.517472 0.275393 0.513813 80 74 88
-0.601201 -0.0482909 0.377055 98 96 110
-0.694241 0.149356 0.793515 15 13 18
-0.60135 -0.0853746 0.356626 116 114 135
-0.766305 0.0234462 -0.0201401 27 21 25
-0.723076 -0.0618576 -0.0297789 91 96 126
-0.490304 0.430469 0.383448 167 154 171
-0.592576 0.458637 0.304331 102 93 112
-0.545949 0.222684 0.344941 55 50 104
-0.59716 0.20507 0.185142 18 12 26
-0.500189 0.290429 0.49212 150 140 164
0.0571497 -0.419448 0.86484 15 14 20
-0.600459 -0.117881 0.337036 111 110 128
-0.612506 0.246827 0.124511 68 64 78
-0.723696 0.124479 0.113925 6 3 10
-0.706546 0.114133 0.0641999 182 175 193
-0.721925 0.131322 0.0789458 128 130 155
-0.592618 0.413661 0.374698 46 41 48
-0.7321 0.598962 0.180136 29 24 30
-0.564238 0.509912 0.20482 112 107 129
-0.701758 0.117546 0.0638714 67 68 96
-0.512825 0.365164 0.416905 128 122 148
-0.599385 -0.281479 0.244342 108 105 126
-0.730653 0.191423 0.177432 20 19 27
-0.115753 -0.525996 0.654782 50 50 60
-0.131898 -0.543932 0.657627 29 28 36
-0.114584 -0.525225 0.654108 52 49 58
-0.119527 -0.51853 0.68831 51 51 61
-0.0801946 -0.545698 0.679419 12 6 8
-0.0836768 -0.549561 0.681478 20 15 19
-0.602777 -0.175659 0.304969 111 105 119
-0.730755 0.151447 0.152947 20 19 27
-0.660469 -0.139897 0.288771 19 16 25
-0.638196 0.45237 0.215527 67 62 40
-0.584481 0.488776 0.241057 75 69 79
-0.470091 0.832162 0.0778415 24 19 26
-0.214902 0.938476 -0.232984 106 93 113
-0.215028 0.929044 -0.227779 108 100 121
-0.421325 0.86699 -0.037455 50 42 53
0.635807 0.776191 -0.347873 82 69 61
0.712396 0.752776 -0.234056 19 17 20
0.268543 0.37402 0.871861 65 62 71
-0.592586 0.297702 0.241337 10 9 43
-0.598404 -0.213663 0.281103 114 110 135
-0.517766 -0.420864 0.565629 85 79 89
-0.729044 0.131432 0.14034 20 19 27
-0.711165 0.154578 0.0882182 120 116 133
-0.605979 0.503175 0.182991 100 92 107
-0.588315 0.4092 0.373709 31 29 34
-0.556796 0.463854 0.294069 69 60 63
-0.65098 0.388463 0.408949 8 3 10
-0.56809 0.162079 0.25216 162 152 176
-0.719613 0.168316 0.177137 24 21 30
-0.729045 0.191911 0.177919 27 24 33
-0.68178 -0.0851156 0.314064 21 20 28
-0.550802 0.243012 0.364235 19 18 76
-0.543707 0.220442 0.364564 54 51 98
-0.507796 0.358072 0.385223 117 104 111
-0.527927 0.307379 0.951455 48 45 52
-0.489434 0.378892 0.980742 1 0 4
-0.599411 0.19733 0.206541 12 8 22
-0.31338 0.439683 -0.465651 77 74 91
-0.545086 0.218382 0.325784 14 12 17
-0.499863 -0.405748 0.569228 155 155 183
-0.581006 -0.388384 0.54045 137 133 158
-0.505193 -0.412922 0.576851 172 161 191
-0.729108 0.0578311 0.09312 22 16 26
-0.689503 -0.152957 0.261356 23 20 27
-0.630475 -0.160834 0.287574 22 19 28
-0.600595 -0.159656 0.314676 116 112 129
-0.599562 -0.297514 0.23599 85 79 89
-0.589641 0.277122 0.224116 12 11 77
-0.533837 0.213685 0.372004 18 15 62
-0.29747 0.779198 0.225718 44 36 49
-0.422791 0.761135 0.180437 49 43 53
-0.43115 0.676001 0.27733 50 42 53
-0.403291 0.665942 0.323695 51 43 54
-0.475832 0.650714 0.33488 46 38 51
-0.458526 0.670471 0.294382 51 43 56
-0.452481 0.652715 0.322974 54 46 59
-0.337988 0.726673 0.291313 53 45 56
0.0441596 0.840302 -0.0615653 45 42 51
-0.086309 0.847442 -0.464923 39 32 40
-0.304671 0.442863 -0.465119 13 8 12
0.650368 0.790105 -0.389771 91 81 82
-0.708744 -0.0599864 -0.0321058 133 120 148
-0.611585 0.233215 0.142035 10 7 14
-0.120013 -0.526457 0.701704 83 85 100
-0.539456 0.64134 0.308804 19 14 18
-0.600808 -0.186345 0.298866 116 112 129
-0.691541 0.403163 0.219438 5 3 6
0.040334 -0.233902 0.955664 22 17 24
-0.619649 -0.101362 0.32776 25 24 32
-0.553707 0.219596 0.309412 49 47 112
-0.426633 -0.0531438 0.825881 144 124 133
-0.00459906 -0.065114 1.0786 33 30 37
-0.574687 -0.254434 0.232921 117 109 133
-0.581022 -0.438185 0.532951 73 70 77
-0.698668 -0.100874 0.0399014 19 19 27
-0.512141 0.73925 0.147691 52 46 56
-0.572779 0.688606 0.154585 59 51 64
-0.0620731 0.830296 -0.385605 26 20 30
-0.356158 0.695451 0.321724 53 45 56
0.0136839 0.862898 -0.106458 27 26 34
-0.440967 0.654488 0.371957 52 46 56
-0.185452 0.894755 0.0433695 47 39 50
-0.612123 -0.115319 0.322618 27 26 32
-0.00139286 -0.510123 0.801248 78 83 103
-0.611783 0.246479 0.12451 89 85 102
-0.599667 -0.203997 0.287387 121 118 139
-0.65673 -0.201962 0.252127 24 23 31
-0.708299 0.11427 0.0644138 182 175 193
-0.00814248 0.318179 1.24084 11 6 12
-0.334769 0.0487237 0.936091 116 109 127
-0.507874 -0.412882 0.569905 28 27 35
-0.665602 -0.0911131 0.308457 17 16 24
0.0719242 -0.297163 0.902892 11 12 17
-0.598875 0.426723 0.811912 24 23 28
-0.61679 0.246434 0.127466 54 48 58
0.0556887 -0.379487 0.862574 5 4 12
-0.521186 0.341754 0.507245 58 55 66
-0.752503 -0.108317 0.062777 52 49 56
-0.603089 0.500955 0.180967 104 92 104
-0.62841 0.461129 0.183363 133 121 145
-0.799001 -0.0930054 0.147466 40 40 52
-0.722847 0.103828 0.106022 25 22 31
0.0520838 -0.0125587 1.08583 13 10 17
-0.539548 0.376241 0.395642 12 10 15
-0.542062 0.236673 0.38518 45 41 91
0.0100195 0.849388 -0.0797129 25 24 32
0.00483613 0.850246 -0.072891 33 30 39
-0.510141 -0.412534 0.560663 79 76 85
-0.573601 -0.402018 0.53982 73 72 86
-0.742737 0.144877 0.183917 24 21 28
-0.641896 -0.080546 0.328563 25 24 30
-0.562159 0.15224 0.269866 190 180 207
-0.671656 -0.0535435 0.325583 21 18 25
-0.527646 0.286123 0.480913 70 69 77
-0.787362 0.108683 0.272504 24 23 31
-0.573771 -0.430666 0.499544 74 72 86
-0.72882 0.0403149 0.0857456 21 20 28
-0.120613 -0.524248 0.698245 45 47 60
-0.504373 0.280207 0.515404 138 130 151
-0.578658 -0.407901 0.545138 68 70 83
-0.60682 -0.203552 0.296425 104 103 121
-0.706131 0.189079 0.105898 72 73 91
-0.755999 -0.150333 0.227239 18 15 24
-0.602163 0.393779 0.805275 57 55 69
-0.508524 0.27114 0.508588 108 104 119
-0.709325 0.0494801 0.0430077 24 22 33
-0.707422 0.000130244 0.000589582 66 71 103
-0.597297 0.496079 0.184263 87 51 39
-0.70854 0.102213 0.0520748 19 17 28
-0.610147 0.452831 0.320499 53 47 59
-0.582024 0.460362 0.297068 97 93 110
-0.604358 0.269319 0.143914 73 71 84
-0.581702 -0.388515 0.538833 148 140 163
-0.531662 -0.169912 0.699925 19 14 21
-0.783631 -0.0690653 0.261037 14 11 18
-0.546133 0.38133 0.407126 116 103 110
-0.585894 0.472718 0.229432 38 32 32
-0.603886 0.489574 0.184657 113 45 36
-1.30248 0.346819 0.393516 77 75 86
-0.118902 -0.517717 0.690601 70 71 89
0.0693425 -0.290606 0.876498 15 16 21
-0.579127 -0.412353 0.546449 79 77 90
-0.528201 0.191223 0.389747 48 43 97
-0.553689 0.164764 0.247 201 191 218
-0.573296 -0.430471 0.500528 77 73 90
-0.574272 -0.433024 0.522159 61 60 68
-0.559618 0.181541 0.242289 143 138 161
-0.633253 0.459629 0.19352 112 97 116
-0.788838 -0.0883672 0.14369 50 50 62
-0.509187 0.367563 0.417234 133 127 155
-0.596788 0.451513 0.317506 106 102 116
-0.593908 0.488988 0.191863 162 139 157
-0.558285 0.241526 0.305958 22 24 99
-0.545137 -0.403371 0.485788 64 59 66
-0.705266 0.200393 0.112162 70 69 85
-0.510915 -0.413075 0.557835 85 79 91
-0.706715 0.234049 0.131719 71 69 80
-0.565093 0.257059 0.299552 30 30 102
-0.640466 -0.0436958 0.349993 26 25 31
-0.787848 0.0497151 0.243283 19 18 26
-0.00551173 -0.262265 0.937632 25 24 32
-0.706248 -0.0649627 -0.0359268 132 120 144
-0.705775 -0.0492794 -0.0273419 117 110 144
-0.601419 0.485125 0.196221 160 129 145
-0.606779 0.479481 0.248349 42 32 31
-0.603539 0.488703 0.19041 110 33 13
-0.571175 0.416658 0.345833 22 16 20
-0.546506 0.124594 0.312279 187 180 198
0.215277 0.883203 -0.212526 72 66 66
0.481459 0.7387 -0.0807138 118 105 114
0.533807 0.694738 -0.134254 101 89 91
0.534229 0.681556 -0.128022 71 62 63
0.480979 0.753649 -0.124037 113 96 104
0.458378 0.755631 -0.111853 93 83 92
0.473255 0.75139 -0.0795243 79 68 74
-0.620224 0.206846 0.0881874 50 52 67
-0.644889 0.453424 0.302756 21 19 22
-0.556227 0.287152 0.336609 9 6 59
0.113386 0.826565 -0.034642 50 45 52
-0.0585948 0.863295 -0.0989964 57 52 59
-0.543238 0.645908 0.311506 38 33 37
-0.72573 0.612392 0.173217 24 22 27
-0.646777 0.508879 0.160895 42 39 48
-0.608158 0.496497 0.180861 113 95 107
-0.520228 0.697444 0.416136 24 21 30
-0.614228 0.635049 0.19042 48 42 52
-0.598369 0.636611 0.203588 47 39 50
-0.599665 0.514192 0.186372 18 1 9
-0.149934 0.881307 -0.134342 36 33 40
-0.603891 -0.127417 0.320235 23 22 30
-0.753673 0.0871591 0.17473 8 5 12
-0.705827 0.0107867 0.00585369 144 127 143
-0.705533 0.0319098 0.0180734 129 121 145
-0.714862 0.10011 0.0588438 72 75 92
-0.607657 0.218289 0.165933 151 147 162
-0.709491 0.139942 0.0867951 6 3 10
-0.659064 0.417784 0.182078 92 87 107
-0.597876 -0.195033 0.291081 120 119 135
-0.599971 -0.104485 0.342793 122 123 141
-0.205713 0.893099 -0.155656 45 42 49
-0.0287454 0.814458 -0.419723 50 44 58
-0.402816 0.674263 0.39961 47 39 50
-0.328095 0.770857 0.216336 48 42 52
-0.324133 0.720583 0.364484 41 35 45
-0.486386 0.650421 0.3324 50 44 54
-0.389145 0.733355 0.223559 56 48 59
-0.606046 0.497651 0.179645 116 103 121
-0.658375 0.567642 0.219409 88 83 103
-0.510396 0.864239 -0.0315321 52 44 57
-0.577923 0.919498 -0.0760544 29 24 31
-0.145585 0.869762 -0.48229 29 23 33
-0.620508 0.472971 0.155773 102 99 118
-0.642655 0.441133 0.172252 96 55 49
-0.634662 0.417573 0.233784 47 40 30
-0.654647 -0.0485739 0.340011 22 21 27
-0.633069 -0.0677385 0.343684 25 22 29
-0.606639 0.470888 0.25134 106 94 82
-0.602339 0.489533 0.246412 34 29 35
-0.706973 0.271951 0.0851988 53 50 59
-0.764479 -0.111087 0.116973 30 30 42
-0.710579 0.066326 0.0391174 141 143 168
-0.549985 0.17667 0.268864 118 123 179
-0.573249 -0.540846 0.648752 92 88 105
-0.652711 0.431298 0.182334 83 24 6
-0.779647 0.0618254 0.227489 7 4 11
-0.586069 0.212298 0.370863 18 16 66
-0.729532 0.0701799 0.0473201 143 146 165
-0.559454 0.239254 0.319532 25 25 99
-0.531309 0.196416 0.379852 41 40 100
-0.535703 0.293034 0.528085 139 131 154
-0.627878 -0.11037 0.373455 118 115 134
-0.554591 0.178029 0.255663 105 100 122
-0.596002 0.287821 0.208292 32 31 109
-0.725199 -0.0473686 0.0830452 39 38 52
-0.715822 0.123664 0.0725306 151 144 162
-0.582291 0.293884 0.255227 47 47 121
-0.689447 -0.0231212 0.334496 21 20 28
-0.512874 -0.229577 0.175608 114 106 127
-0.505942 0.30012 0.966166 61 59 70
-0.637049 0.86491 0.0356785 26 21 28
-0.593321 0.951395 -0.153863 2 0 5
-0.494755 0.399627 0.375459 54 63 96
-0.531433 0.245887 0.430818 16 14 64
-0.705517 0.000585533 0.000241848 133 119 134
-0.707129 -0.0274953 -0.0143287 121 125 160
-0.708986 -0.101893 -0.0557209 102 88 105
-0.702319 0.0804884 0.0399779 14 13 21
-0.59536 -0.163061 0.305832 111 106 128
-0.740171 0.150974 0.178783 25 22 29
-0.520844 -0.456127 0.558298 65 56 59
-0.7262 0.220061 0.0620328 53 52 60
-0.495674 -0.209431 0.701831 17 16 24
-0.0788309 -0.54562 0.634791 34 31 38
-0.64411 0.525364 0.17359 54 53 61
-0.547513 0.213016 0.333803 14 11 32
0.243306 0.670472 -0.624629 50 45 52
-0.520063 0.357542 0.861852 23 27 52
-0.612599 -0.0366551 0.426736 20 18 23
-0.00429385 -0.253508 0.932209 5 3 6
-0.529828 0.191147 0.384126 10 12 60
-0.517531 0.366308 0.420626 123 118 138
-0.0785828 -0.510145 0.590489 38 38 46
-0.474558 -0.393887 0.480256 79 74 80
-0.53571 -0.499247 0.591599 76 72 86
-0.708164 -0.110181 -0.0612795 71 63 86
-0.555503 0.461769 0.289811 151 143 166
-0.727602 0.163326 0.098198 115 112 129
-0.499868 0.281016 0.489001 90 84 98
-0.534099 0.461781 0.293185 84 78 82
-0.488252 0.439211 0.327667 74 72 93
-0.651013 0.430855 0.155482 62 57 63
-0.180516 0.892965 -0.147324 78 71 79
-0.494132 0.435701 0.327446 65 54 62
-0.478925 0.373903 0.403223 18 12 26
-0.732873 0.135417 0.169351 20 18 29
-0.776211 0.661458 0.270953 11 9 12
-0.573984 0.48243 0.232534 39 34 41
-0.533501 0.255134 0.406462 31 30 90
-0.57408 0.300405 0.2697 11 9 46
-0.660232 0.623855 0.186375 7 1 5
-0.603567 0.481454 0.194293 123 76 92
-0.721121 0.126372 0.101075 18 16 27
-0.590276 0.463381 0.22277 122 106 116
-0.623312 -0.0825427 0.336754 25 23 28
0.211218 0.83716 -0.481529 53 45 56
0.364373 0.794509 0.0157878 34 31 38
0.552615 0.786721 -0.274511 80 70 71
0.397184 0.88632 -0.195723 117 104 113
-0.58304 0.317999 0.286118 25 27 101
-0.546826 0.26821 0.551079 105 100 120
-0.609935 0.28578 0.153754 47 45 69
-0.644173 0.453933 0.302794 14 12 17
-0.710855 0.031625 0.0184686 101 97 122
-0.257615 0.894354 -0.173201 22 17 24
-0.632408 0.419282 0.388539 41 40 48
-0.563688 0.191894 0.246339 37 32 38
-0.605987 0.298654 0.174809 18 16 81
-0.621474 0.438011 0.267173 47 41 25
-0.613499 0.473281 0.162614 123 76 68
-0.560984 0.28892 0.335096 33 32 98
-0.614632 0.470062 0.166888 78 73 93
-0.568507 0.64495 0.238325 52 44 55
-0.762239 -0.0700227 0.0870796 34 36 48
-0.549188 0.228759 0.328563 39 36 103
-0.747981 -0.0878393 0.0658483 9 4 10
-0.651859 0.436839 0.18797 5 3 8
-0.137205 0.937697 -0.2392 23 18 24
-0.163047 0.889492 -0.14066 64 61 70
-0.317381 0.852831 -0.237039 5 0 6
-0.155243 0.895268 -0.453927 8 1 9
-0.484553 0.8851 -0.102505 49 41 52
0.0128615 0.88847 -0.155093 25 22 31
-0.485763 0.648788 0.319149 54 46 59
-0.497312 0.647604 0.320624 44 37 45
-0.369256 0.707696 0.270396 50 44 56
0.0133334 0.888723 -0.155301 24 21 30
-0.497928 0.657156 0.332798 50 40 51
-0.381851 0.703746 0.268408 54 46 59
-0.138057 0.879498 -0.354656 15 8 16
-0.651432 0.438379 0.148474 63 56 64
-0.578803 0.444319 0.297695 89 80 97
-0.631885 0.491002 0.153265 8 5 14
-0.504375 -0.461285 0.545549 92 88 105
-0.705868 0.0418741 0.0238536 151 137 152
-0.271845 0.378998 1.14303 34 25 26
-0.813598 -0.161265 0.189369 30 25 32
-0.546619 0.233435 0.344666 12 10 57
-0.622355 -0.334023 0.240114 71 70 84
-0.576564 0.476917 0.213977 44 29 36
-0.532883 0.225577 0.38738 36 35 92
-0.61175 0.277416 0.143031 48 45 54
0.301778 0.971764 -0.424769 11 4 12
-0.600899 0.517261 0.185191 60 53 60
-0.54773 0.40547 0.326869 90 86 100
-0.705668 0.12131 0.0617484 26 24 35
-0.625083 0.468464 0.227555 84 61 45
-0.598987 -0.00431526 0.40016 88 84 98
-0.774825 0.0863196 0.25298 22 19 28
0.145463 0.629784 -0.804642 20 15 21
-0.313563 0.379532 -0.492314 142 143 171
-0.540929 0.22793 0.364698 12 10 34
-0.715084 0.0384381 0.044349 24 21 30
-0.570817 0.260131 0.275095 26 22 73
-0.53831 0.228886 0.382303 22 19 88
-0.632574 0.447626 0.151474 113 59 47
-0.634418 0.443308 0.134319 116 108 132
-0.584492 0.472925 0.212481 35 26 29
-0.605317 0.469288 0.224156 104 88 88
-0.734646 0.167072 0.182879 18 17 25
-0.527725 0.29682 0.514457 73 70 81
-0.716781 0.0941891 0.056508 142 137 157
0.186212 0.828645 -0.478029 19 13 23
-0.598204 -0.15495 0.316734 67 63 78
-0.714205 0.194009 0.173895 17 16 24
-0.599712 0.290616 0.201321 23 20 75
-0.612481 0.467785 0.20007 56 42 42
-0.934997 -0.110873 0.216138 27 29 42
0.486654 0.848463 -0.135043 71 66 72
-0.166374 0.914982 -0.253281 39 33 43
-0.646095 -0.0978643 0.315717 27 26 32
-0.710183 0.139249 0.0881609 13 10 17
-0.507884 -0.453548 0.542906 19 18 24
-0.650886 0.447423 0.194496 107 94 112
-0.491138 0.319178 0.553676 42 39 48
-0.640128 0.522727 0.172501 57 51 61
-0.652078 0.438855 0.186844 114 101 121
-0.604082 0.0824171 0.801696 14 12 17
-0.599424 -0.262803 0.254729 126 116 140
-0.713245 -0.0102995 0.335472 21 18 25
-0.566016 0.255249 0.288966 16 17 82
-0.564508 0.280871 0.225295 74 71 124
-8.64107e-05 -0.0470477 1.0379 45 44 52
0.00055144 -0.0420479 1.01857 34 31 40
0.199272 0.748096 -0.51363 51 45 57
0.0372636 0.925598 -0.196854 14 11 18
0.190291 0.849925 -0.40226 69 61 76
0.234436 0.875186 -0.453017 61 53 64
-0.116179 0.927495 -0.251291 27 21 31
-0.182612 0.923701 -0.261327 40 32 43
-0.708757 -0.00620947 -0.00305051 26 32 48
-0.546834 -0.315449 0.166459 44 39 46
-0.532067 0.461146 0.293086 91 81 80
-0.546338 0.213573 0.332069 14 10 25
-0.683175 0.212016 0.185789 160 152 176
-0.758923 0.148747 0.220498 16 15 23
-0.614875 0.470477 0.159028 132 117 138
-0.522225 0.290449 0.489255 54 51 62
-0.52777 0.246967 0.421637 35 31 90
-0.530361 0.198289 0.384715 37 37 97
-0.517529 0.277847 0.485449 51 45 55
-0.583217 0.323567 0.941478 21 22 43
-0.531083 0.365293 0.415028 46 41 48
-0.520974 0.492289 0.177759 83 77 89
-0.719384 0.0921291 0.0870379 26 23 30
-0.580637 0.266029 0.247363 12 11 77
-0.250811 0.912561 -0.176061 57 54 65
-0.44439 0.491532 0.568544 75 69 73
-0.615375 0.408845 0.372578 55 53 58
-0.615706 0.44805 0.248998 151 130 113
-0.682959 -0.105769 0.292923 21 18 25
-0.596224 -0.216931 0.281038 12 10 13
-0.560618 0.190337 0.2441 39 37 42
-0.0885792 0.829143 -0.434676 45 39 49
-0.658652 0.414291 0.186109 66 60 72
-0.617648 0.474638 0.160328 72 65 83
-0.634482 0.4766 0.21246 71 53 51
-0.633761 0.442427 0.135267 118 109 138
-0.60712 0.482785 0.253945 94 89 96
-0.605522 0.291728 0.182701 18 16 91
-0.667051 0.414246 0.185581 7 2 6
-0.338554 0.720799 0.281943 47 39 50
-0.493844 0.657673 0.251142 49 43 53
-0.424729 0.855394 -0.00687988 45 37 48
-0.327561 0.719339 0.328423 48 42 52
-0.664163 0.68638 0.13757 49 43 53
-0.405348 0.741172 0.206627 51 43 56
-0.336628 0.772762 0.210339 46 39 47
-0.369422 0.703115 0.309775 47 41 53
-0.362658 0.711593 0.276998 53 45 56
-0.47598 0.869101 -0.0651905 48 40 51
-0.5508 0.644532 0.239362 54 48 62
-0.153466 0.889178 -0.466556 9 2 10
-0.151812 0.894791 -0.387779 34 24 33
-0.2017 0.945416 -0.277887 39 31 42
-0.480658 0.863027 -0.0515271 51 44 52
0.0151607 0.850911 -0.0650688 26 23 30
-0.0996304 1.03561 -0.01212 32 27 33
-0.59653 0.297556 0.217054 26 28 105
-0.560906 0.267663 0.323603 13 11 50
-0.738638 0.195547 0.195279 23 22 28
-0.0291079 0.858539 -0.0890662 35 32 41
-0.514391 0.705064 0.17483 55 47 58
-0.318078 0.845756 0.0703323 49 41 52
-0.658301 0.428987 0.163968 55 53 58
-0.596845 0.495466 0.183977 89 53 41
0.52173 0.940629 -0.344832 92 81 85
0.475345 0.865842 -0.185546 118 105 114
0.545188 0.805137 -0.261773 75 69 73
-0.559377 0.193602 0.25187 33 27 31
-0.555952 0.180214 0.246199 17 14 21
-0.686653 -0.104769 -0.0654169 67 59 80
-0.658104 -0.335764 0.275979 81 84 103
-0.656945 -0.162616 0.276316 22 21 29
-0.550552 0.220567 0.319497 10 9 79
-0.577557 0.176091 0.252221 95 91 114
-0.62202 0.633649 0.202912 45 40 47
-0.577572 0.186175 0.216283 180 169 199
-0.447352 -0.0470726 0.811618 132 129 150
-0.528008 0.28633 0.481132 86 82 96
-0.59566 -0.264702 0.248559 106 102 127
-0.566154 0.250271 0.289168 67 64 119
-0.566866 0.239939 0.280712 66 62 123
-0.643995 0.438843 0.200809 131 112 79
-0.542506 0.462047 0.29406 81 72 75
-0.481669 0.276061 0.470974 149 144 166
-0.491779 0.303795 0.498531 112 103 122
-0.795723 0.02824 0.307952 22 17 24
0.452378 0.853411 -0.498971 18 13 20
0.341209 0.931405 -0.34368 25 20 26
-0.690411 0.49031 0.292691 105 92 83
-0.450273 0.396897 0.355131 23 22 38
-0.60591 0.499378 0.179621 137 125 145
-0.546277 0.466804 0.162602 154 119 143
-0.605164 0.483243 0.18958 162 133 151
-0.583231 0.492849 0.236108 113 103 128
-0.595316 0.482263 0.189785 159 130 150
-0.665855 0.437407 0.187006 88 21 2
-0.615224 0.468501 0.147907 79 76 95
-0.63563 0.464157 0.230749 71 57 56
-0.62998 0.451797 0.145549 100 33 14
0.23111 0.869633 -0.447594 63 57 69
-0.631052 0.414422 0.228775 56 49 30
-0.554716 0.251177 0.324472 17 17 87
-0.744612 0.157159 0.194252 20 19 27
-0.600214 -0.273319 0.249569 114 110 127
-0.549527 0.240967 0.339772 12 11 68
-0.594122 -0.238114 0.262923 140 130 155
-0.593915 -0.161658 0.305485 116 118 141
-0.580912 0.409866 0.366769 96 92 107
-0.742558 0.17187 0.197816 24 22 27
-0.702862 0.0634735 0.0347973 133 134 155
-0.74169 0.225189 0.138717 75 72 83
-0.580257 0.203905 0.185368 183 173 198
-0.749602 0.0590218 0.0480267 155 146 165
-0.579107 0.197132 0.199754 182 172 199
-0.625694 0.446879 0.279328 24 19 26
-0.578119 0.517511 0.197391 61 58 67
-0.627032 0.41359 0.383299 59 54 61
-0.557736 0.220768 0.297345 57 56 113
-0.59541 0.29601 0.211389 21 23 100
-0.563073 0.247173 0.303096 57 52 116
-0.701392 0.239661 0.13274 53 51 64
-0.704188 0.0809136 0.0449246 166 159 177
-0.693061 0.12325 0.0655636 166 164 186
-0.584843 0.34345 0.285252 23 24 81
-0.522521 0.367164 0.396092 184 176 200
-0.557048 0.272444 0.337953 8 7 51
-0.693466 0.242246 0.132377 62 56 68
-0.778483 0.111093 0.268566 20 19 27
-0.535533 0.22532 0.377619 51 47 98
-0.713441 0.136558 0.0945452 5 0 7
-0.568906 0.27401 0.295669 25 23 98
-0.708798 -0.0985647 -0.0542216 98 88 113
-0.559828 0.251208 0.308279 20 22 99
-0.630841 0.649935 0.16642 54 46 57
-0.648822 0.430907 0.184184 74 27 17
-0.528469 0.223623 0.408551 30 28 91
-0.57834 0.482795 0.217581 79 68 84
-0.591155 0.45908 0.302776 126 119 137
-0.644512 0.441114 0.180564 115 102 122
-0.553913 0.409111 0.332743 121 117 132
-0.526897 0.248008 0.430357 32 31 91
-0.548825 0.176877 0.268489 120 126 184
-0.528714 0.340223 0.517568 41 39 52
-0.597926 -0.0620864 0.365477 83 82 96
-0.511392 0.366777 0.418566 144 138 164
-0.632559 0.476252 0.216534 72 57 52
-0.509168 0.389162 0.844573 28 26 39
-0.565125 0.47233 0.194335 38 37 55
-0.585938 0.196216 0.198563 10 5 12
-0.60381 0.499816 0.180038 129 116 136
-0.559689 0.242804 0.30653 16 15 83
-0.577683 0.467533 0.208409 33 25 36
-0.594602 0.460229 0.30515 85 78 94
-0.606468 0.48501 0.190091 154 135 157
-0.75837 -0.106967 0.117647 45 45 57
-0.705207 0.624586 0.208322 14 8 12
-0.654883 0.730088 0.116061 24 19 26
-0.588871 0.692678 0.146091 58 50 63
-0.664755 0.901227 0.0211034 45 45 53
-0.439228 0.67183 0.360985 47 41 53
-0.310035 0.769287 0.231615 50 42 55
-0.427015 0.665401 0.321999 46 40 52
-0.313367 0.410524 -0.480391 102 99 120
-0.0971756 0.843589 -0.419175 31 24 32
-0.698827 0.455392 0.171409 62 59 66
-0.611521 0.446513 0.245799 165 144 123
-0.635155 0.455618 0.228717 109 73 49
-0.517943 0.12578 0.378935 85 83 97
-0.551251 0.269622 0.3474 13 13 65
-0.540406 0.198589 0.356783 16 15 72
-0.406534 0.753177 0.194927 51 43 56
-0.138793 0.897059 -0.26794 27 24 33
-0.282138 0.865477 0.0100616 47 41 51
-0.169552 0.930598 -0.369337 30 25 32
-0.167034 0.934352 -0.394158 19 11 22
-0.16683 0.927135 -0.423098 28 22 32
-0.68517 0.831511 0.0218181 3 0 7
-0.201761 0.943751 -0.285313 29 22 29
-0.57065 0.873021 -0.116294 4 1 8
-0.369427 0.976618 -0.165737 37 32 38
-0.215433 0.926967 -0.224801 108 100 121
-0.0967406 0.833387 -0.441606 47 41 51
-0.312632 0.550374 -0.409284 81 78 95
-0.313561 0.409464 -0.480198 110 101 118
-0.515234 0.729035 0.153006 55 47 60
-0.222512 1.00581 -0.372453 5 0 6
-0.307584 0.92211 -0.195572 47 41 51
-0.614354 0.454369 0.239774 181 147 135
-0.593716 0.487999 0.186454 53 14 15
-0.524321 0.276408 0.531942 140 132 155
-0.527758 0.285763 0.481937 83 79 93
-0.615663 0.4677 0.215796 144 131 138
-0.61028 0.485022 0.252418 120 110 119
-0.572307 0.430761 0.346721 77 74 85
-0.592391 0.490643 0.185197 71 12 0
-0.704805 -0.0972798 0.287855 21 20 28
-0.604624 0.469971 0.228818 46 41 47
-0.559202 0.467215 0.184501 106 99 117
-0.627543 0.473011 0.216507 49 41 52
0.10532 0.825709 -0.0355012 52 45 52
-0.31377 0.404891 -0.48283 87 80 98
-0.551536 0.955335 -0.163391 44 37 45
-0.184222 0.945908 -0.331918 31 26 33
-0.645624 0.465357 0.155383 100 91 118
-0.570072 0.474831 0.197864 39 36 53
-0.768344 -0.122704 0.100333 16 15 23
-0.222682 0.370238 1.17155 83 77 87
-0.56896 0.485689 0.204879 58 47 61
-0.614083 0.48393 0.248033 42 33 34
-0.71833 0.120902 0.106565 23 20 29
-0.709061 0.123106 0.0803452 22 19 28
-0.69198 -0.0798488 0.311483 19 17 22
-0.754371 0.139071 0.257566 8 5 12
-0.555548 0.194734 0.254373 63 59 73
-0.60271 0.284974 0.151447 51 47 70
-0.665024 -0.0318598 0.343371 26 23 30
-0.593849 -0.120407 0.328854 119 119 143
-0.668863 -0.098419 0.300548 22 19 26
-0.708034 -0.100071 -0.0551118 112 103 120
0.121838 0.634954 -0.814626 21 20 28
0.224113 0.590476 -0.720074 78 70 85
-0.222931 0.86928 0.0529004 50 42 53
-0.51066 0.6464 0.277323 51 44 52
-0.534884 0.823492 0.0681426 47 39 52
-0.627832 0.460521 0.183434 140 128 152
-0.787137 0.0961495 0.262147 19 18 26
-0.561059 0.282091 0.338526 10 8 48
-0.739804 0.171769 0.190274 25 24 32
-0.581133 0.299802 0.232536 3 7 96
-0.585491 0.21572 0.167755 173 165 188
-0.588863 -0.0185149 0.375854 12 11 17
-0.742873 -0.0809786 0.0719096 33 33 45
-0.569591 0.23691 0.265282 38 36 101
-0.603082 0.290511 0.181684 31 28 95
-0.563037 0.225807 0.30012 37 37 107
-0.765919 0.156371 0.273456 9 7 12
-0.498859 0.437796 0.33477 84 73 87
-0.59746 0.463345 0.210438 179 142 159
-0.519488 0.271349 0.519231 108 104 119
0.159627 0.663421 -0.558436 56 48 61
-0.310931 0.557957 -0.391867 74 71 88
-0.572652 0.483407 0.203739 48 45 62
-0.524176 0.272988 0.492824 35 32 39
-0.506856 0.313748 0.559859 55 47 60
-0.698673 -0.153684 0.259853 19 18 26
-0.587901 0.459133 0.298783 35 31 45
-0.600298 -0.197822 0.29179 113 111 132
-0.51076 -0.415215 0.569545 30 29 34
-0.560764 0.461794 0.290858 133 129 144
-0.526447 0.183699 0.387537 40 36 95
-0.610033 0.477995 0.201474 180 131 161
-0.600633 0.227859 0.14863 158 150 174
-0.445516 0.380076 0.858583 23 22 28
-0.602792 -0.185006 0.301608 118 114 128
-0.602991 -0.16363 0.314497 124 125 145
-0.583308 0.461833 0.21807 131 117 132
-0.514136 -0.417272 0.56554 81 77 91
-0.633789 0.492966 0.153497 5 2 11
-0.244206 0.855409 0.076537 50 42 53
0.0291288 0.882327 -0.143717 23 20 29
-0.0899024 0.840794 -0.317534 47 39 54
-0.498946 0.678938 0.212596 51 45 57
-0.19556 0.907079 -0.268433 5 0 6
-0.502827 0.650064 0.269924 50 42 53
0.01141 0.854297 -0.0666384 19 16 25
-0.566909 0.258861 0.291694 42 41 117
-0.587065 0.326569 0.280767 31 29 104
-0.658886 0.414488 0.196268 49 20 16
-0.58104 0.31897 0.298071 47 46 103
-0.566391 0.228818 0.289694 55 52 119
-0.592385 0.298197 0.223559 41 40 106
-0.58423 0.291813 0.248473 37 36 116
-0.798635 0.11915 0.315173 20 19 27
-0.56042 0.264149 0.317199 18 17 97
-0.532224 0.220085 0.392568 51 44 96
-0.381943 0.766861 0.192968 50 44 54
-0.317717 0.833089 -0.244638 17 12 18
-0.0593798 0.863728 -0.0993977 71 69 80
-0.45299 0.855459 -0.00392551 47 41 51
-0.674034 -0.0950646 0.304742 19 16 23
-0.50685 0.279781 0.517083 140 132 155
-0.607326 -0.102899 0.353152 115 111 126
-0.506569 0.306324 0.546165 127 116 133
-0.744207 0.519296 0.289513 110 105 128
-0.54329 0.449762 0.163437 50 40 39
-0.0187465 0.741203 -0.915849 17 12 18
0.210501 0.866341 -0.425455 39 32 40
-0.0568982 0.831704 -0.441824 14 7 14
-0.710156 0.940377 0.0465199 49 49 57
-0.0559408 0.899471 -0.172157 11 8 15
-0.582104 0.490676 0.203408 38 39 59
-0.356109 0.39987 1.11993 62 59 70
-0.569844 0.12096 0.846417 18 13 20
-0.320896 0.0621527 0.920403 109 106 117
-0.540775 0.480291 0.148152 86 74 86
-0.545297 0.230964 0.349023 54 51 106
-0.553872 0.276151 0.334464 27 26 96
-0.62537 0.455742 0.180649 90 82 95
-0.60567 0.45795 0.154418 113 106 124
-0.74237 -0.0821859 0.0732491 13 13 23
-0.599373 0.00433575 0.40639 87 84 95
-0.610435 -0.0366416 0.389482 28 27 33
-0.58459 0.302763 0.26949 11 9 49
-0.507515 0.394313 0.365933 77 82 114
-0.743607 0.100853 0.156729 25 22 29
-0.474163 0.642878 0.557959 21 18 25
-0.753973 -0.00657646 0.308915 17 14 21
-0.316405 0.86051 -0.229664 7 0 7
-0.205448 0.633446 -0.626518 20 19 27
0.167805 0.814234 -0.0108623 37 34 43
-0.41674 0.670747 0.418689 50 44 56
0.152552 0.815907 -0.0161029 27 26 34
-0.454332 0.652782 0.35222 51 43 54
-0.424715 0.662477 0.32119 52 44 55
0.117342 0.836519 -0.0256851 16 13 22
-0.487953 0.649664 0.284199 53 45 56
-0.282618 0.916741 -0.186136 61 58 67
0.253178 0.869629 -0.512922 50 40 51
0.498561 0.801207 -0.33941 92 81 85
-0.649205 0.431625 0.18586 89 46 40
-0.486871 0.657876 0.258942 56 48 59
-0.423981 0.65224 0.35022 45 42 53
-0.518648 0.647618 0.272584 50 42 53
-0.638683 0.632367 0.230587 7 0 7
-0.110022 0.885291 -0.146746 23 20 29
-0.487195 0.729866 0.167408 52 46 58
-0.244765 0.902953 -0.170187 73 70 79
-0.582154 0.639993 0.227561 49 41 52
-0.295151 0.852621 0.0448498 44 38 48
-0.430629 0.664274 0.312465 54 46 57
-0.310289 0.770049 0.231745 49 43 53
0.199761 0.854506 -0.457367 25 19 29
-0.605315 -0.176129 0.278765 28 27 35
-0.717604 0.079229 0.0755663 23 22 30
-0.495934 0.364589 0.401669 106 102 116
-0.662489 0.62387 0.186714 6 1 7
-0.583011 0.298746 0.266378 53 50 119
-0.618047 0.507054 0.196463 19 3 3
-0.584712 0.19684 0.187532 11 6 13
0.65782 0.710469 -0.222901 20 20 22
0.530366 0.70362 -0.140644 60 51 52
-0.314088 0.294204 -0.537143 94 90 107
-0.649526 0.440142 0.206361 112 108 70
-0.574198 0.634022 0.244749 19 14 18
-0.515222 0.420169 0.331633 72 71 89
-0.583997 0.243417 0.297267 58 58 122
-0.604276 0.498683 0.178966 81 68 78
-0.566984 0.643559 0.237619 49 41 52
-0.236559 0.37949 1.18665 72 69 80
-0.600298 0.0540517 0.436446 63 58 65
-0.728227 0.597059 0.179178 30 25 32
-0.312795 0.487794 -0.439931 91 88 109
0.238345 0.879847 -0.435993 55 47 58
0.215603 0.886549 -0.23379 81 72 75
-0.624829 0.458776 0.192063 29 48 65
-0.592345 0.483992 0.234196 39 33 43
-0.531567 0.458265 0.293603 90 80 79
-0.619308 0.465622 0.219356 131 118 125
-0.591443 0.46329 0.226543 49 44 51
0.43162 0.789537 -0.0179986 89 78 84
-0.60393 -0.0680475 0.353794 25 23 28
-0.539909 0.22671 0.362829 11 9 33
-0.533383 0.407214 0.821401 41 39 50
-0.400981 0.344406 0.895355 71 68 77
-0.452283 0.630077 0.536206 33 32 38
-0.640149 -0.0485733 0.345479 21 19 24
-0.616705 0.401733 0.81657 40 38 49
-0.590008 0.46301 0.220831 125 112 129
-0.597856 -0.0725694 0.359545 105 107 122
-0.546786 0.244322 0.448045 38 35 90
-0.721514 0.0853083 0.0528025 149 145 162
-0.646046 0.247341 0.149731 112 105 123
-0.644204 0.724401 0.116183 33 26 34
-0.767257 0.130929 0.23522 18 17 25
-0.526312 0.337543 0.94602 32 27 34
-0.600098 0.207115 0.183633 175 165 190
-0.512867 0.342888 0.514055 96 96 122
-0.149683 0.885787 -0.134941 45 44 52
-0.686294 0.42827 0.195535 98 93 115
-0.558467 0.272335 0.31989 9 7 46
-0.596945 0.648371 0.260536 17 12 18
