# 3D point list with one line of data per point:
#   POINT3D_ID, X, Y, Z, R, G, B, ERROR, TRACK[] as (IMAGE_ID, POINT2D_IDX)
# Number of points: 633
5849 0.5665320158004761 0.7890880107879639 -0.29317399859428406 108 96 98 0
5850 -0.04386590048670769 0.8181260228157043 -0.4222150146961212 44 38 48 0
5851 -0.7379329800605774 0.1050489991903305 0.12598200142383575 23 20 29 0
5852 -0.6687260270118713 0.4049150049686432 0.2321310043334961 44 39 45 0
5853 -0.5033349990844727 0.6923080086708069 0.1726280003786087 55 47 58 0
5854 -0.6206880211830139 0.6506149768829346 0.17045199871063232 51 45 55 0
5855 -0.5778399705886841 0.6966850161552429 0.1472889930009842 58 50 61 0
5856 -0.16718700528144836 0.9319459795951843 -0.38008999824523926 28 22 32 0
5857 -0.4979029893875122 0.6626949906349182 0.4708090126514435 23 21 26 0
5858 -0.5966789722442627 0.6378170251846313 0.2188979983329773 48 40 51 0
5859 -0.627560019493103 0.4998120069503784 0.16321900486946106 20 17 26 0
5860 -0.5130739808082581 0.689782977104187 0.41101399064064026 23 22 30 0
5861 -0.5193359851837158 0.6974850296974182 0.41651201248168945 20 19 27 0
5862 -0.4259659945964813 0.6584200263023376 0.3088879883289337 46 40 52 0
5863 -0.4083459973335266 0.6767910122871399 0.29909199476242065 50 44 56 0
5864 -0.370728999376297 0.9492949843406677 -0.15844400227069855 44 36 47 0
5865 -0.2379930019378662 0.904757022857666 -0.16906599700450897 66 63 72 0
5866 -0.46730101108551025 0.8884279727935791 -0.11887899786233902 47 41 53 0
5867 0.052480101585388184 0.6505410075187683 -0.8408240079879761 18 13 20 0
5868 -0.5506929755210876 0.251926988363266 0.33927300572395325 22 20 83 0
5869 -0.6029130220413208 0.4834589958190918 0.24323099851608276 45 39 41 0
5870 -0.587785005569458 0.299576997756958 0.23577600717544556 8 10 97 0
5871 -0.6157519817352295 0.21304099261760712 0.1754010021686554 169 159 183 0
5872 -0.5949550271034241 0.4449479877948761 0.32252898812294006 71 66 73 0
5873 -0.630236029624939 0.47774600982666016 0.2091829925775528 57 46 50 0
5874 -0.5413219928741455 0.2084919959306717 0.33785098791122437 14 12 34 0
5875 -0.5655350089073181 0.18221600353717804 0.2219579964876175 187 177 204 0
5876 -0.48439300060272217 0.37263500690460205 0.4052619934082031 122 116 142 0
5877 -0.5862799882888794 0.2889310121536255 0.24651800096035004 8 8 62 0
5878 -0.5505300164222717 0.26809000968933105 0.3401159942150116 29 27 92 0
5879 -0.4763120114803314 0.40504199266433716 0.390529990196228 24 22 35 0
5880 -0.7218970060348511 0.16218000650405884 0.2563619911670685 5 3 8 0
5881 -0.580007016658783 0.6415979862213135 0.23114299774169922 50 44 56 0
5882 -0.5775259733200073 0.46740901470184326 0.20999500155448914 47 35 55 0
5883 -0.7416210174560547 0.15644100308418274 0.18410800397396088 23 20 27 0
5884 -0.7326239943504333 0.1521880030632019 0.16393700242042542 23 17 27 0
5885 -0.5384619832038879 0.23153099417686462 0.3725470006465912 12 11 55 0
5886 -0.5791069865226746 0.3005940020084381 0.2803100049495697 40 37 108 0
5887 -0.7092580199241638 0.18618999421596527 0.10556700080633163 82 81 97 0
5888 -0.49801599979400635 0.3702560067176819 0.4142949879169464 138 129 158 0
5889 -0.5527060031890869 0.24251900613307953 0.3157919943332672 51 50 110 0
5890 -0.5969460010528564 -0.1548050045967102 0.3127889931201935 126 127 157 0
5891 -0.5463500022888184 0.22168299555778503 0.3458870053291321 57 53 104 0
5892 -0.555105984210968 0.2474289983510971 0.32567599415779114 9 9 63 0
5893 -0.5542399883270264 0.26109498739242554 0.32947999238967896 23 23 95 0
5894 -0.6216549873352051 0.4662429988384247 0.27672499418258667 90 81 64 0
5895 -0.5810390114784241 0.4923189878463745 0.23792299628257751 92 88 105 0
5896 -0.6003900170326233 -0.15729999542236328 0.31489700078964233 109 114 134 0
5897 -0.7033370137214661 0.049938101321458817 0.027767900377511978 149 138 155 0
5898 -0.5656020045280457 0.27626198530197144 0.3061099946498871 37 35 108 0
5899 -0.6348339915275574 -0.02931009978055954 0.35963499546051025 21 20 26 0
5900 -0.6415799856185913 -0.09452970325946808 0.321696013212204 26 25 33 0
5901 -0.5821020007133484 0.49351999163627625 0.23804399371147156 104 96 119 0
5902 -0.6522070169448853 0.423678994178772 0.16949400305747986 133 125 149 0
5903 -0.15665599703788757 0.9068610072135925 -0.4526529908180237 21 16 23 0
5904 -0.5803580284118652 0.921904981136322 -0.0753863975405693 32 24 35 0
5905 -0.5242260098457336 0.6782180070877075 0.19546900689601898 55 44 58 0
5906 -0.6019589900970459 0.6484450101852417 0.18275399506092072 49 43 55 0
5907 -0.5491369962692261 0.6749079823493958 0.18147100508213043 51 45 55 0
5908 -0.48350098729133606 0.6888840198516846 0.21156300604343414 54 46 59 0
5909 -0.5080789923667908 0.690680980682373 0.19233199954032898 56 48 61 0
5910 -0.5286669731140137 0.7287499904632568 0.15273800492286682 56 50 64 0
5911 -0.16290399432182312 0.9264839887619019 -0.44212499260902405 24 17 25 0
5912 -0.15749399363994598 0.9055039882659912 -0.4843670129776001 28 23 30 0
5913 -0.5551390051841736 0.1865520030260086 0.25557300448417664 39 37 42 0
5914 -0.61906498670578 0.4715160131454468 0.22449100017547607 188 158 184 0
5915 -0.6975100040435791 0.12019900232553482 0.0654039978981018 179 170 191 0
5916 -0.6060799956321716 0.4790480136871338 0.24944700300693512 50 45 41 0
5917 -0.5851269960403442 0.33281901478767395 0.2823219895362854 24 23 89 0
5918 -0.5913199782371521 0.48033198714256287 0.2369460016489029 59 50 55 0
5919 -0.5676699876785278 0.27705299854278564 0.2997870147228241 34 34 106 0
5920 -0.5885369777679443 0.30715298652648926 0.249440997838974 14 17 60 0
5921 -0.593982994556427 0.29169100522994995 0.21333199739456177 37 36 106 0
5922 -0.5442180037498474 0.2737259864807129 0.31136101484298706 12 9 62 0
5923 -0.5932599902153015 0.30680298805236816 0.22679999470710754 33 34 98 0
5924 -0.5633640289306641 0.25714001059532166 0.2989389896392822 27 26 96 0
5925 -0.5812280178070068 0.3169409930706024 0.2594529986381531 30 31 88 0
5926 -0.5908169746398926 0.21484899520874023 0.17273400723934174 168 158 183 0
5927 -0.7075369954109192 0.05172260105609894 0.03664129972457886 9 6 13 0
5928 -0.5879769921302795 0.4647580087184906 0.2098740041255951 86 72 97 0
5929 0.025677500292658806 0.8449360132217407 -0.06574729830026627 42 39 48 0
5930 0.4566609859466553 0.9514679908752441 -0.34049099683761597 97 88 93 0
5931 -0.5489760041236877 0.2122109979391098 0.3283030092716217 13 12 43 0
5932 -0.6236600279808044 -0.03526800125837326 0.3757149875164032 23 21 26 0
5933 -0.5858550071716309 0.27867698669433594 0.23529499769210815 53 50 117 0
5934 -0.5263640284538269 0.1974010020494461 0.35321301221847534 36 32 91 0
5935 -0.5373169779777527 0.22624999284744263 0.36065900325775146 13 11 58 0
5936 0.2409529983997345 0.8986409902572632 -0.2982099950313568 48 41 48 0
5937 0.2842710018157959 0.8926069736480713 -0.30501100420951843 99 87 91 0
5938 0.42892301082611084 0.8106930255889893 -0.017716800794005394 22 19 26 0
5939 -0.16224700212478638 0.933722972869873 -0.49682700634002686 13 7 17 0
5940 -0.15948499739170074 0.9120129942893982 -0.45495399832725525 21 16 23 0
5941 -0.14520800113677979 0.8874189853668213 -0.42494699358940125 23 18 25 0
5942 -0.0781920999288559 0.8288429975509644 -0.4157629907131195 42 36 46 0
5943 -0.5240349769592285 0.925819993019104 -0.17744900286197662 28 21 29 0
5944 -0.5313469767570496 0.22538000345230103 0.3861770033836365 36 32 93 0
5945 -0.7304689884185791 0.16538900136947632 0.16342300176620483 26 25 33 0
5946 -0.5365769863128662 0.22598400712013245 0.3788340091705322 48 44 95 0
5947 -0.5339699983596802 0.20134100317955017 0.38391798734664917 10 10 34 0
5948 -0.4981510043144226 0.9128580093383789 -0.16217699646949768 38 30 41 0
5949 -0.32117700576782227 0.7676249742507935 0.22628499567508698 48 40 51 0
5950 -0.6194189786911011 -0.18345099687576294 0.2811110019683838 27 26 32 0
5951 -0.5485870242118835 0.28693199157714844 0.3381339907646179 49 44 100 0
5952 -0.6598179936408997 0.41493698954582214 0.20612099766731262 46 24 26 0
5953 -0.5527600049972534 0.234592005610466 0.3214380145072937 35 34 102 0
5954 -0.5321009755134583 0.21539799869060516 0.3852370083332062 45 40 94 0
5955 -0.594277024269104 0.29407501220703125 0.21825100481510162 54 54 118 0
5956 -0.5422070026397705 0.20316199958324432 0.3372870087623596 15 12 39 0
5957 -0.7045029997825623 0.06679309904575348 0.05277080088853836 22 20 31 0
5958 -0.6016870141029358 0.13387000560760498 0.48089098930358887 38 37 43 0
5959 -0.5470860004425049 0.22219300270080566 0.3418000042438507 45 41 100 0
5960 -0.7239459753036499 0.048645101487636566 0.07953929901123047 20 17 28 0
5961 -0.5277860164642334 0.19579899311065674 0.37861698865890503 42 41 98 0
5962 0.15936100482940674 0.5895000100135803 -0.7024520039558411 72 66 78 0
5963 0.0492389015853405 0.598766028881073 -0.6827189922332764 79 72 80 0
5964 -0.16496500372886658 0.9291520118713379 -0.38040998578071594 31 26 33 0
5965 -0.30637699365615845 0.9165700078010559 -0.19409100711345673 60 54 64 0
5966 -0.5320389866828918 0.2145169973373413 0.38478198647499084 42 38 99 0
5967 -0.5592849850654602 0.28672200441360474 0.3321239948272705 28 25 96 0
5968 -0.5395240187644958 0.11877299845218658 0.40733999013900757 59 56 63 0
5969 -0.5300660133361816 0.23354700207710266 0.3987480103969574 20 21 77 0
5970 -0.5269010066986084 0.2335750013589859 0.46223899722099304 21 17 42 0
5971 -0.4288569986820221 -0.05194909870624542 0.8225389719009399 146 129 137 0
5972 0.20285199582576752 0.20660600066184998 0.5713070034980774 5 0 6 0
5973 -0.4298120141029358 -0.02105950005352497 0.8484990000724792 106 98 119 0
5974 -0.42735201120376587 -0.05260059982538223 0.8258739709854126 161 143 155 0
5975 -0.4242689907550812 -0.017016099765896797 0.8464040160179138 91 88 105 0
5976 -0.44652798771858215 -0.04728949815034866 0.8106619715690613 161 152 173 0
5977 -0.44618600606918335 -0.046636298298835754 0.8101670145988464 98 99 120 0
5978 -0.5094410181045532 0.3692390024662018 0.8480110168457031 32 34 55 0
5979 -0.16631099581718445 0.35564500093460083 1.1818000078201294 72 66 76 0
5980 -0.3334920108318329 0.048803798854351044 0.9291599988937378 77 76 92 0
5981 -0.5292710065841675 0.39578500390052795 0.8070999979972839 125 115 139 0
5982 -0.43050798773765564 -0.08495359867811203 0.7993670105934143 14 13 21 0
5983 -0.5529270172119141 0.40273699164390564 0.8081780076026917 74 70 95 0
5984 -0.5959100127220154 0.3257560133934021 0.9298589825630188 54 56 79 0
5985 0.22007499635219574 0.22567999362945557 0.6234560012817383 115 108 116 0
5986 -0.4490090012550354 -0.01330609992146492 0.8379909992218018 100 95 117 0
5987 -0.5477060079574585 0.39985498785972595 0.7995790243148804 97 93 118 0
5988 -0.4495910108089447 -0.011447600089013577 0.8382019996643066 109 101 124 0
5989 -0.3958449959754944 0.3447529971599579 0.8933899998664856 54 51 58 0
5990 -0.40303099155426025 0.35479798913002014 0.8719000220298767 54 51 60 0
5991 -0.5973569750785828 0.3928639888763428 0.7977920174598694 67 66 82 0
5992 -0.3758620023727417 -0.18123100697994232 0.7731770277023315 19 18 26 0
5993 -0.4915179908275604 0.3796989917755127 0.9872289896011353 0 0 2 0
5994 -0.4150800108909607 0.3687480092048645 0.8728830218315125 40 38 43 0
5995 -0.28717300295829773 0.046711500734090805 0.9523770213127136 39 36 43 0
5996 -0.2845489978790283 0.057645101100206375 0.935808002948761 122 121 139 0
5997 -0.5048620104789734 0.37575599551200867 0.8400899767875671 48 50 73 0
5998 0.20765699446201324 0.23601700365543365 0.6344239711761475 124 114 122 0
5999 0.24498799443244934 0.22807399928569794 0.6521210074424744 106 101 107 0
6000 0.16478300094604492 0.4878849983215332 0.9581149816513062 63 61 72 0
6001 -0.6362869739532471 0.13401900231838226 0.8167819976806641 14 11 18 0
6002 -0.4847649931907654 0.37980198860168457 0.909479022026062 54 51 60 0
6003 0.3004800081253052 0.24867099523544312 0.5988010168075562 19 19 27 0
6004 -0.32259300351142883 0.059849198907613754 0.9286820292472839 82 66 77 0
6005 -0.4722389876842499 0.2954150140285492 0.9919779896736145 34 33 39 0
6006 -0.5040590167045593 0.3018549978733063 0.9711120128631592 64 61 72 0
6007 -0.25512999296188354 0.3773530125617981 1.1549400091171265 77 68 71 0
6008 0.24534499645233154 0.3453179895877838 0.5014569759368896 87 76 84 0
6009 0.3586840033531189 0.2924000024795532 0.4629940092563629 163 146 156 0
6010 0.45495501160621643 0.36985599994659424 0.5876100063323975 135 119 130 0
6011 0.33890101313591003 0.2644760012626648 0.4970709979534149 130 114 125 0
6012 0.27313101291656494 0.23089000582695007 0.6036980152130127 68 62 74 0
6013 0.3365280032157898 0.3052839934825897 0.45214998722076416 117 98 100 0
6014 0.2514050006866455 0.20356300473213196 0.6152769923210144 10 7 14 0
6015 0.3847010135650635 0.32415199279785156 0.42994698882102966 65 59 69 0
6016 0.247298002243042 0.2781989872455597 0.478285014629364 135 122 131 0
6017 0.3045159876346588 0.28123900294303894 0.4806919991970062 147 131 141 0
6018 -0.49792200326919556 0.3097879886627197 0.5405330061912537 123 115 138 0
6019 0.33820798993110657 0.2717759907245636 0.47854799032211304 115 99 102 0
6020 0.3446510136127472 0.2626050114631653 0.48309698700904846 128 112 123 0
6021 0.2792370021343231 0.317997008562088 0.4482020139694214 83 68 63 0
6022 0.2742449939250946 0.31331101059913635 0.4327149987220764 101 82 78 0
6023 0.2839820086956024 0.3280610144138336 0.4452880024909973 71 53 53 0
6024 0.33414700627326965 0.3184660077095032 0.4345709979534149 129 114 117 0
6025 -0.26814600825309753 0.3808790147304535 1.1497199535369873 82 74 85 0
6026 -0.5261409878730774 0.3046709895133972 0.9637669920921326 59 56 65 0
6027 0.315964013338089 0.2610520124435425 0.5813249945640564 59 60 78 0
6028 -0.3185569941997528 0.06259889900684357 0.9162769913673401 126 120 132 0
6029 0.25428101420402527 0.2860170006752014 0.6276090145111084 4 1 8 0
6030 -0.3826189935207367 -0.13001799583435059 0.8008660078048706 17 16 24 0
6031 -0.6338149905204773 0.17739300429821014 0.847320020198822 16 13 20 0
6032 0.3219760060310364 0.2741360068321228 0.5187410116195679 55 47 58 0
6033 0.29670700430870056 0.249876007437706 0.6000109910964966 101 91 99 0
6034 -0.4373309910297394 0.31648701429367065 0.9460510015487671 53 50 59 0
6035 0.275858998298645 0.3474529981613159 0.4155150055885315 80 69 65 0
6036 0.3327769935131073 0.3194969892501831 0.4399150013923645 108 93 96 0
6037 0.3297640085220337 0.3269500136375427 0.36635300517082214 146 130 141 0
6038 0.2852669954299927 0.3529930114746094 0.41989099979400635 131 118 128 0
6039 0.28276100754737854 0.3737280070781708 0.4248329997062683 90 81 86 0
6040 0.3534199893474579 0.340380996465683 0.3883500099182129 60 51 52 0
6041 0.2673240005970001 0.3018609881401062 0.4367789924144745 93 79 78 0
6042 0.30642199516296387 0.34545400738716125 0.3852680027484894 149 132 142 0
6043 0.3162580132484436 0.34132200479507446 0.38970598578453064 146 129 137 0
6044 0.235494002699852 0.34042099118232727 0.498522013425827 72 66 76 0
6045 0.277195006608963 0.3422980010509491 0.40530499815940857 140 124 135 0
6046 0.385125994682312 0.35741499066352844 0.41697201132774353 133 120 130 0
6047 0.33874601125717163 0.3354380130767822 0.3764750063419342 143 125 137 0
6048 0.2770000100135803 0.3400860130786896 0.42037099599838257 121 104 112 0
6049 0.3101170063018799 0.35295701026916504 0.3804450035095215 143 125 137 0
6050 0.3440310060977936 0.37400999665260315 0.3912909924983978 92 82 90 0
6051 0.36587899923324585 0.3386729955673218 0.3907490074634552 127 112 119 0
6052 0.3067910075187683 0.33185601234436035 0.37773799896240234 148 131 139 0
6053 0.24865500628948212 0.34554600715637207 0.4650309979915619 83 74 79 0
6054 0.24529099464416504 0.34163299202919006 0.4500269889831543 108 99 104 0
6055 0.3096030056476593 0.35218900442123413 0.3801270127296448 125 113 127 0
6056 0.35149699449539185 0.34596899151802063 0.3926990032196045 139 121 133 0
6057 0.34985101222991943 0.33605700731277466 0.3829129934310913 18 12 14 0
6058 0.2898229956626892 0.28206300735473633 0.47368401288986206 86 69 75 0
6059 0.38176798820495605 0.3495970070362091 0.35707399249076843 82 76 86 0
6060 0.3865079879760742 0.3271329998970032 0.34806400537490845 151 143 167 0
6061 -0.03354579955339432 0.4488770067691803 0.5822409987449646 9 8 16 0
6062 0.22777299582958221 0.3241550028324127 0.47662100195884705 121 107 120 0
6063 0.342943012714386 0.34308499097824097 0.385233998298645 153 137 148 0
6064 0.26956701278686523 0.3187899887561798 0.5493260025978088 27 22 29 0
6065 0.3904449939727783 0.36074399948120117 0.3728559911251068 90 84 94 0
6066 0.398622989654541 0.32346200942993164 0.3240419924259186 142 136 162 0
6067 0.40929800271987915 0.3446600139141083 0.33257898688316345 56 55 86 0
6068 0.3114660084247589 0.2885519862174988 0.441787987947464 130 111 115 0
6069 0.3293910026550293 0.3008910119533539 0.452114999294281 130 110 119 0
6070 0.34049099683761597 0.2615090012550354 0.47297799587249756 133 116 126 0
6071 0.3583120107650757 0.29108500480651855 0.45618999004364014 134 120 133 0
6072 0.3523530066013336 0.2917500138282776 0.451088011264801 138 122 132 0
6073 0.3163270056247711 0.2649419903755188 0.49117401242256165 140 127 136 0
6074 -0.49761301279067993 0.3141689896583557 0.5492950081825256 101 98 119 0
6075 0.31962499022483826 0.3068329989910126 0.4163239896297455 73 62 58 0
6076 0.3080419898033142 0.2631179988384247 0.5445150136947632 123 110 127 0
6077 -0.15147200226783752 0.3526430130004883 1.1882400512695312 31 25 27 0
6078 -0.5722879767417908 0.1755100041627884 0.8760300278663635 15 14 22 0
6079 0.18084099888801575 0.26151299476623535 0.6227989792823792 71 65 69 0
6080 -0.32041099667549133 0.3931429982185364 1.1337499618530273 85 79 93 0
6081 -0.5299819707870483 0.3381290137767792 0.9027420282363892 39 36 45 0
6082 0.28602200746536255 0.2409050017595291 0.586670994758606 102 95 102 0
6083 0.15934699773788452 0.48606398701667786 0.9577440023422241 61 59 70 0
6084 -0.5368580222129822 0.3298580050468445 0.935903012752533 56 54 65 0
6085 0.36443498730659485 0.2973029911518097 0.4735170006752014 163 146 156 0
6086 0.31962600350379944 0.2712070047855377 0.5166580080986023 57 55 66 0
6087 0.3552350103855133 0.293969988822937 0.4555320143699646 139 123 133 0
6088 0.3251590132713318 0.3026149868965149 0.42881301045417786 116 99 107 0
6089 0.3029550015926361 0.28397899866104126 0.45729899406433105 124 105 107 0
6090 0.31046199798583984 0.2888740003108978 0.4622829854488373 158 138 147 0
6091 0.2894020080566406 0.2893019914627075 0.4363909959793091 139 122 130 0
6092 0.3088490068912506 0.25859299302101135 0.5697680115699768 34 34 46 0
6093 -0.5051329731941223 0.3006959855556488 0.9697059988975525 63 57 67 0
6094 0.22211100161075592 0.266961008310318 0.7094759941101074 118 108 117 0
6095 -0.3538450002670288 0.39888298511505127 1.1218199729919434 17 8 9 0
6096 -0.6217319965362549 0.3314639925956726 0.9128329753875732 87 88 108 0
6097 -0.40379101037979126 0.35356900095939636 0.8788009881973267 33 30 37 0
6098 0.30968600511550903 0.25853899121284485 0.5728009939193726 42 44 57 0
6099 0.26809799671173096 0.49565500020980835 0.4668219983577728 80 73 80 0
6100 0.26749899983406067 0.3200260102748871 0.4296570122241974 127 106 111 0
6101 0.2720620036125183 0.30688101053237915 0.44755199551582336 99 85 85 0
6102 0.2771799862384796 0.2864440083503723 0.48249998688697815 102 86 87 0
6103 0.3250870108604431 0.2857770025730133 0.5389410257339478 29 26 35 0
6104 0.30116701126098633 0.2517929971218109 0.5952450037002563 23 22 28 0
6105 0.23687200248241425 0.3146109879016876 0.5028799772262573 11 6 12 0
6106 0.27896401286125183 0.28847500681877136 0.4869590103626251 102 86 87 0
6107 0.28310298919677734 0.2990350127220154 0.5289930105209351 16 11 17 0
6108 0.3255600035190582 0.2781290113925934 0.5952469706535339 103 95 108 0
6109 0.36047598719596863 0.37400999665260315 0.3938150107860565 45 36 41 0
6110 0.17719300091266632 0.23318299651145935 0.5926420092582703 14 7 15 0
6111 -0.017754800617694855 0.45802199840545654 0.530672013759613 108 100 113 0
6112 0.3362730145454407 0.3835130035877228 0.38384801149368286 92 81 89 0
6113 0.3035280108451843 0.2799530029296875 0.4870719909667969 108 89 91 0
6114 0.3243519961833954 0.3853369951248169 0.3784399926662445 79 73 87 0
6115 0.3215770125389099 0.386911004781723 0.3769870102405548 99 89 98 0
6116 0.3352139890193939 0.2720009982585907 0.5233860015869141 79 76 87 0
6117 0.24110400676727295 0.34018900990486145 0.4764130115509033 82 73 78 0
6118 0.3459630012512207 0.34226399660110474 0.3893350064754486 153 135 147 0
6119 0.32861998677253723 0.3826040029525757 0.3786050081253052 115 105 114 0
6120 0.33301299810409546 0.2747049927711487 0.4636099934577942 165 145 147 0
6121 0.2755729854106903 0.34671300649642944 0.4109089970588684 82 71 69 0
6122 0.3100599944591522 0.27392899990081787 0.48257800936698914 84 68 69 0
6123 0.3055979907512665 0.3271290063858032 0.38980600237846375 157 142 149 0
6124 0.3422290086746216 0.33348798751831055 0.4059709906578064 143 124 130 0
6125 0.31127598881721497 0.3558970093727112 0.3501250147819519 120 108 118 0
6126 0.2312300056219101 0.20694600045681 0.5939329862594604 7 2 8 0
6127 0.14764200150966644 -0.12169700115919113 0.7513399720191956 107 104 123 0
6128 0.32600098848342896 0.2670849859714508 0.5010629892349243 151 135 146 0
6129 0.26372501254081726 0.29182499647140503 0.5087490081787109 126 113 122 0
6130 0.24536600708961487 0.21726199984550476 0.6255930066108704 99 89 100 0
6131 0.2958419919013977 0.14514200389385223 0.5846179723739624 84 80 94 0
6132 -0.5286539793014526 0.3946880102157593 0.8050410151481628 143 133 157 0
6133 -0.5495730042457581 0.3210670053958893 0.9392719864845276 51 48 55 0
6134 -0.18675300478935242 0.3628099858760834 1.1823099851608276 74 68 82 0
6135 -0.7032579779624939 0.10715299844741821 0.7650200128555298 16 13 20 0
6136 -5.285010047373362e-05 0.4720099866390228 0.48781898617744446 97 93 110 0
6137 0.3767319917678833 0.31206101179122925 0.4305190145969391 88 80 95 0
6138 0.3348419964313507 0.27713799476623535 0.4886919856071472 138 121 127 0
6139 0.2647790014743805 0.30964401364326477 0.453014999628067 129 112 122 0
6140 0.40503400564193726 0.379254013299942 0.3316600024700165 100 80 92 0
6141 0.28009799122810364 0.27156999707221985 0.48941200971603394 124 112 124 0
6142 0.28711700439453125 0.2915079891681671 0.5186989903450012 96 84 88 0
6143 0.27466699481010437 0.28977400064468384 0.4733020067214966 157 137 139 0
6144 0.31739699840545654 0.2781440019607544 0.5219290256500244 37 34 43 0
6145 0.3012099862098694 0.2787629961967468 0.4810410141944885 98 83 86 0
6146 0.28230199217796326 0.2980569899082184 0.5270599722862244 17 10 17 0
6147 0.23050199449062347 0.3233419954776764 0.49205800890922546 114 104 113 0
6148 0.23488199710845947 0.31472501158714294 0.5001509785652161 11 6 12 0
6149 0.2768790125846863 0.292928010225296 0.5164240002632141 17 11 15 0
6150 0.32896000146865845 0.26563000679016113 0.4660870134830475 117 101 104 0
6151 -0.5072540044784546 0.30679500102996826 0.5471749901771545 134 122 144 0
6152 0.09966199845075607 0.45768600702285767 0.7231090068817139 111 103 116 0
6153 0.12034499645233154 0.4314059913158417 0.6928039789199829 111 101 112 0
6154 0.2677130103111267 0.22276200354099274 0.6393399834632874 107 99 114 0
6155 0.07423479855060577 0.4304639995098114 0.6565819978713989 117 109 124 0
6156 0.2867850065231323 0.2781040072441101 0.466946005821228 90 74 77 0
6157 0.2310670018196106 0.32287201285362244 0.4929080009460449 114 104 113 0
6158 0.058642901480197906 0.42657700181007385 0.6379889845848083 118 110 123 0
6159 0.08486320078372955 0.4188480079174042 0.647271990776062 121 110 126 0
6160 0.12769299745559692 0.4165470004081726 0.6746649742126465 120 109 123 0
6161 0.4014120101928711 0.3410469889640808 0.3252129852771759 59 59 87 0
6162 0.41363099217414856 0.3473860025405884 0.3269590139389038 57 46 54 0
6163 0.4322420060634613 0.3551360070705414 0.3146519958972931 134 129 149 0
6164 0.4039370119571686 0.34673500061035156 0.3194260001182556 137 131 157 0
6165 0.40578800439834595 0.3475080132484436 0.3326539993286133 127 119 143 0
6166 0.42423298954963684 0.3509719967842102 0.33455199003219604 134 122 144 0
6167 0.4136059880256653 0.35158899426460266 0.32067298889160156 154 142 164 0
6168 0.41371700167655945 0.35300400853157043 0.30355799198150635 150 139 155 0
6169 0.41593000292778015 0.3565109968185425 0.3120270073413849 142 130 154 0
6170 0.39744699001312256 0.34112200140953064 0.3128809928894043 135 127 151 0
6171 0.43643900752067566 0.3591899871826172 0.31877198815345764 153 148 170 0
6172 0.43585699796676636 0.36204099655151367 0.3200570046901703 152 146 172 0
6173 0.4043799936771393 0.3453280031681061 0.31314799189567566 147 137 161 0
6174 0.40457698702812195 0.3620949983596802 0.342756986618042 41 20 29 0
6175 0.40985700488090515 0.3620080053806305 0.3450869917869568 43 23 34 0
6176 0.39729100465774536 0.32608699798583984 0.30136799812316895 153 138 159 0
6177 0.39792299270629883 0.37922999262809753 0.368243008852005 35 9 0 0
6178 0.42038899660110474 0.34474098682403564 0.33803001046180725 74 66 79 0
6179 0.4046170115470886 0.3449249863624573 0.33240100741386414 141 135 161 0
6180 0.3980799913406372 0.3769170045852661 0.3677929937839508 131 65 13 0
6181 0.3934729993343353 0.33483800292015076 0.3221369981765747 141 135 161 0
6182 0.39328300952911377 0.3334810137748718 0.35529300570487976 147 139 163 0
6183 0.38790199160575867 0.3289709985256195 0.3356510102748871 144 132 156 0
6184 0.37504899501800537 0.3336830139160156 0.4195300042629242 150 133 141 0
6185 0.33701300621032715 0.3645150065422058 0.38535699248313904 128 112 123 0
6186 0.3425939977169037 0.35230299830436707 0.37697499990463257 10 5 9 0
6187 0.3160319924354553 0.2714489996433258 0.5370280146598816 124 113 129 0
6188 0.15154999494552612 0.40401801466941833 1.0740200281143188 17 12 18 0
6189 0.42569699883461 0.36032798886299133 0.32645300030708313 63 51 55 0
6190 0.26969701051712036 0.22320400178432465 0.6428679823875427 103 90 99 0
6191 0.2515139877796173 0.22197400033473969 0.6428679823875427 118 107 115 0
6192 -0.6497330069541931 0.3410530090332031 0.8940759897232056 49 51 74 0
6193 -0.6313310265541077 0.3354620039463043 0.904541015625 54 55 75 0
6194 -0.5388349890708923 0.31089699268341064 0.9504789710044861 44 42 53 0
6195 -0.39114999771118164 -0.15234200656414032 0.7854310274124146 18 15 22 0
6196 -0.23629100620746613 0.37287700176239014 1.1627399921417236 35 26 29 0
6197 0.27325400710105896 0.22677800059318542 0.6555050015449524 16 10 22 0
6198 0.16891999542713165 0.4138680100440979 0.6853229999542236 26 21 25 0
6199 0.17683899402618408 0.4107950031757355 0.6883400082588196 45 39 43 0
6200 0.2731359899044037 0.22944700717926025 0.6192029714584351 108 98 107 0
6201 0.06588820368051529 0.4278300106525421 0.6456800103187561 116 110 124 0
6202 0.1643020063638687 0.49053001403808594 0.9828130006790161 74 72 83 0
6203 -0.2896620035171509 0.047987401485443115 0.9589440226554871 54 50 64 0
6204 0.1603669971227646 0.4791629910469055 0.9598420262336731 74 72 83 0
6205 -0.4514229893684387 0.3188439905643463 0.9624339938163757 45 43 48 0
6206 0.2662869989871979 0.2221830040216446 0.62916499376297 123 107 117 0
6207 0.33775800466537476 0.2572050094604492 0.48748400807380676 145 128 138 0
6208 0.2016189992427826 0.24872800707817078 0.651835024356842 133 123 132 0
6209 0.2961980104446411 0.2023490071296692 0.6081510186195374 80 74 86 0
6210 0.047113098204135895 0.4330340027809143 0.6391940116882324 107 99 114 0
6211 0.025210799649357796 0.43645501136779785 0.6270089745521545 115 107 120 0
6212 0.25614699721336365 0.3353790044784546 0.37353000044822693 94 81 88 0
6213 0.28897300362586975 0.33982598781585693 0.39879000186920166 154 137 147 0
6214 0.28436601161956787 0.33325400948524475 0.39351698756217957 151 133 145 0
6215 0.26946499943733215 0.33771800994873047 0.4011709988117218 88 74 74 0
6216 0.3913399875164032 0.3313170075416565 0.35026198625564575 142 130 152 0
6217 0.39083901047706604 0.33133500814437866 0.35356301069259644 152 144 167 0
6218 0.3897629976272583 0.34780800342559814 0.36479899287223816 102 90 100 0
6219 0.30489200353622437 0.35422199964523315 0.38514599204063416 125 108 114 0
6220 -0.5049780011177063 0.27905499935150146 0.5116519927978516 143 133 157 0
6221 -0.4812549948692322 0.4042530059814453 0.3942509889602661 51 50 68 0
6222 0.05509220063686371 -0.26216599345207214 0.8759279847145081 58 56 67 0
6223 0.05833020061254501 -0.3144649863243103 0.9164320230484009 44 44 56 0
6224 0.18351200222969055 0.10274899750947952 0.9044510126113892 87 85 98 0
6225 0.24751099944114685 0.2237749993801117 0.6856399774551392 13 11 16 0
6226 -0.025542400777339935 0.47830700874328613 0.5786880254745483 104 100 114 0
6227 0.06954319775104523 0.45001301169395447 0.6862789988517761 109 103 117 0
6228 -0.5039039850234985 0.30133599042892456 0.5052120089530945 79 71 86 0
6229 -0.6750140190124512 0.22062499821186066 0.7454559803009033 15 13 18 0
6230 -0.517304003238678 -0.06845299899578094 0.7703949809074402 14 12 17 0
6231 0.27830401062965393 0.34294500946998596 0.41110900044441223 125 108 116 0
6232 0.324321985244751 0.2755739986896515 0.5276380181312561 81 71 79 0
6233 -0.5141130089759827 0.2956770062446594 0.5461850166320801 86 82 97 0
6234 0.1888969987630844 0.23704299330711365 0.6167770028114319 9 3 13 0
6235 0.28245601058006287 0.2979399859905243 0.5263320207595825 98 87 93 0
6236 -0.5048859715461731 0.2811349928379059 0.5187919735908508 129 124 146 0
6237 0.34308698773384094 0.2592410147190094 0.5037040114402771 126 115 129 0
6238 0.03574329987168312 0.4654420018196106 0.6829509735107422 103 95 108 0
6239 -0.5311170220375061 0.3950369954109192 0.8072559833526611 71 66 88 0
6240 -0.19968099892139435 0.3571850061416626 1.1445200443267822 79 72 80 0
6241 -0.46930500864982605 0.29459500312805176 0.9867370128631592 57 56 64 0
6242 -0.7008829712867737 0.1937990039587021 0.8190320134162903 19 16 25 0
6243 -0.3661690056324005 0.058118101209402084 0.9340999722480774 18 15 22 0
6244 0.2704159915447235 0.20840899646282196 0.6641659736633301 74 73 89 0
6245 0.08501020073890686 0.43174999952316284 0.668865978717804 12 6 16 0
6246 -0.5131890177726746 0.361719012260437 0.40827998518943787 42 40 53 0
6247 0.23601199686527252 0.22625699639320374 0.6387720108032227 119 109 117 0
6248 -0.5103300213813782 0.31126999855041504 0.5620909929275513 105 101 116 0
6249 0.09498520195484161 0.42241498827934265 0.6601859927177429 120 110 121 0
6250 0.17553499341011047 0.42321598529815674 0.7128400206565857 97 91 103 0
6251 -0.4802649915218353 0.40331900119781494 0.3890079855918884 34 35 53 0
6252 0.1892620027065277 0.43055200576782227 0.6651819944381714 117 106 123 0
6253 0.4004429876804352 0.3582260012626648 0.40554600954055786 35 32 41 0
6254 0.42411598563194275 0.3514620065689087 0.34046798944473267 87 81 95 0
6255 0.4002709984779358 0.3584370017051697 0.41250601410865784 46 42 57 0
6256 0.42165300250053406 0.33807501196861267 0.36735799908638 87 83 100 0
6257 0.4020949900150299 0.3599669933319092 0.4150109887123108 29 26 33 0
6258 0.40246498584747314 0.3369370102882385 0.36366599798202515 149 144 167 0
6259 0.402880996465683 0.33202800154685974 0.3612239956855774 120 113 131 0
6260 0.3907800018787384 0.3333609998226166 0.33614298701286316 139 127 149 0
6261 0.40242999792099 0.3615640103816986 0.4171440005302429 22 17 21 0
6262 0.39883100986480713 0.35826000571250916 0.41207799315452576 27 24 31 0
6263 0.40053701400756836 0.3585819900035858 0.40641599893569946 62 57 64 0
6264 0.39281201362609863 0.36344900727272034 0.375355988740921 85 78 86 0
6265 0.3886229991912842 0.33284398913383484 0.3531149923801422 113 103 127 0
6266 0.4014100134372711 0.36129599809646606 0.4072979986667633 31 29 34 0
6267 0.3846389949321747 0.34314998984336853 0.3965950012207031 21 18 25 0
6268 0.3976860046386719 0.3369370102882385 0.34795698523521423 144 135 156 0
6269 0.4018549919128418 0.36061999201774597 0.42638999223709106 37 34 41 0
6270 0.4105849862098694 0.3664020001888275 0.42357900738716125 46 42 57 0
6271 0.4189949929714203 0.33914801478385925 0.3610379993915558 140 132 155 0
6272 0.39706799387931824 0.354203999042511 0.405782014131546 120 109 125 0
6273 0.26512300968170166 0.3003770112991333 0.4324820041656494 101 87 86 0
6274 0.3825739920139313 0.35379400849342346 0.41423299908638 132 119 129 0
6275 0.3483029901981354 0.33291101455688477 0.4505699872970581 78 64 63 0
6276 0.2346860021352768 0.3344480097293854 0.47040098905563354 112 99 108 0
6277 0.3584670126438141 0.34217798709869385 0.39601799845695496 64 57 64 0
6278 0.36424198746681213 0.3455210030078888 0.3983440101146698 97 87 95 0
6279 0.33387601375579834 0.3440159857273102 0.37376898527145386 113 100 109 0
6280 0.35003700852394104 0.3625049889087677 0.3941200077533722 73 61 63 0
6281 0.25721099972724915 0.3569999933242798 0.4614199995994568 45 39 43 0
6282 0.38620200753211975 0.33644598722457886 0.4127439856529236 70 64 68 0
6283 0.29106301069259644 0.3361330032348633 0.4111430048942566 152 132 141 0
6284 0.2695150077342987 0.3283129930496216 0.4030430018901825 150 129 138 0
6285 0.35479700565338135 0.33834201097488403 0.39084601402282715 51 45 49 0
6286 0.3448989987373352 0.34077000617980957 0.38784798979759216 155 138 148 0
6287 0.3357410132884979 0.3655639886856079 0.37790000438690186 59 54 60 0
6288 0.3493970036506653 0.36375099420547485 0.39198100566864014 80 70 69 0
6289 0.16522899270057678 0.4121190011501312 0.6802039742469788 7 5 6 0
6290 0.28683799505233765 0.24196000397205353 0.5968049764633179 92 84 95 0
6291 0.16977199912071228 0.4139620065689087 0.696278989315033 8 2 14 0
6292 0.21816100180149078 0.23200300335884094 0.6358550190925598 94 87 95 0
6293 0.28189200162887573 0.33238300681114197 0.3915089964866638 149 133 146 0
6294 0.11834300309419632 0.4014979898929596 0.6451089978218079 116 108 119 0
6295 -0.03389139845967293 0.4626399874687195 0.6064910292625427 52 49 60 0
6296 0.3368360102176666 0.3316969871520996 0.4385469853878021 105 91 91 0
6297 0.3016520142555237 0.2677290141582489 0.45422300696372986 147 130 136 0
6298 -0.005552269984036684 0.46403801441192627 0.647475004196167 12 6 16 0
6299 0.31241101026535034 0.3200779855251312 0.40997999906539917 90 76 73 0
6300 0.3785240054130554 0.35736000537872314 0.3936670124530792 131 120 134 0
6301 0.3471989929676056 0.3629319965839386 0.37766900658607483 116 104 116 0
6302 0.3285770118236542 0.3444939851760864 0.37069201469421387 141 127 140 0
6303 0.3839170038700104 0.34389299154281616 0.40521299839019775 50 48 59 0
6304 0.38848501443862915 0.3606629967689514 0.4211980104446411 133 120 130 0
6305 0.34998801350593567 0.3398529887199402 0.38939499855041504 66 56 55 0
6306 -0.01925080083310604 0.4736579954624176 0.5533199906349182 102 98 113 0
6307 0.3326460123062134 0.31394100189208984 0.42790699005126953 95 81 81 0
6308 0.2772449851036072 0.3495430052280426 0.4151949882507324 83 69 66 0
6309 0.34672901034355164 0.38243401050567627 0.389831006526947 115 105 114 0
6310 0.3445790112018585 0.3919749855995178 0.3947489857673645 60 51 56 0
6311 0.2865230143070221 0.33803999423980713 0.4001309871673584 144 128 141 0
6312 0.3265399932861328 0.3293209969997406 0.4007570147514343 109 89 88 0
6313 0.18806800246238708 0.42763200402259827 0.6582859754562378 116 105 119 0
6314 0.25767600536346436 0.2934949994087219 0.4084939956665039 101 86 83 0
6315 0.0016036200104281306 0.20471900701522827 1.1818699836730957 20 18 23 0
6316 0.3321230113506317 0.2656930088996887 0.46588099002838135 130 111 115 0
6317 -0.49783599376678467 0.31989601254463196 0.4952700138092041 24 28 55 0
6318 0.27928099036216736 0.2840160131454468 0.47493600845336914 148 132 142 0
6319 0.22491100430488586 0.3099069893360138 0.44719600677490234 127 113 126 0
6320 0.2670910060405731 0.3118630051612854 0.45767900347709656 128 112 122 0
6321 0.04115299880504608 0.4172559976577759 0.6103370189666748 11 8 15 0
6322 0.4239630103111267 0.3490320146083832 0.3101469874382019 146 138 161 0
6323 0.410178005695343 0.33672699332237244 0.3153519928455353 162 144 166 0
6324 0.4178999960422516 0.3514139950275421 0.3332099914550781 45 38 45 0
6325 0.4257130026817322 0.35867398977279663 0.32361501455307007 65 58 65 0
6326 0.4226660132408142 0.3993470072746277 0.39348700642585754 135 65 5 0
6327 0.41177698969841003 0.35107699036598206 0.34270599484443665 142 136 162 0
6328 0.30609801411628723 0.31032899022102356 0.3989039957523346 79 68 64 0
6329 0.3857789933681488 0.34496599435806274 0.4060699939727783 18 18 28 0
6330 0.29645299911499023 0.5514860153198242 0.5270010232925415 68 65 74 0
6331 0.29091501235961914 0.541146993637085 0.5163480043411255 80 73 80 0
6332 0.2154410034418106 0.23642399907112122 0.6417220234870911 126 115 123 0
6333 0.42110198736190796 0.3559519946575165 0.3406429886817932 56 48 59 0
6334 0.059886399656534195 -0.029608100652694702 1.0832300186157227 38 38 48 0
6335 0.0014819999923929572 -0.05342809855937958 1.0353399515151978 30 27 34 0
6336 -0.03457719832658768 0.46520400047302246 0.6090909838676453 68 64 78 0
6337 0.0009407150209881365 -0.014423400163650513 1.07614004611969 14 13 21 0
6338 -0.003924279939383268 0.32085898518562317 1.2490400075912476 21 18 25 0
6339 0.2905069887638092 0.24552799761295319 0.5859670042991638 95 88 96 0
6340 -0.5057479739189148 0.28597500920295715 0.5021139979362488 154 145 166 0
6341 -0.3339439928531647 0.048760298639535904 0.929885983467102 125 120 142 0
6342 -0.3822149932384491 0.3279460072517395 1.0610300302505493 16 13 20 0
6343 -0.5036739706993103 0.5772899985313416 0.7130429744720459 22 17 23 0
6344 -0.5079889893531799 0.3402380049228668 0.520675003528595 94 96 117 0
6345 -0.44547298550605774 -0.04647919908165932 0.8133649826049805 139 122 132 0
6346 0.0012736900243908167 -0.0517520010471344 1.040969967842102 32 31 39 0
6347 0.3293769955635071 0.3368220031261444 0.36340200901031494 14 8 10 0
6348 0.34064799547195435 0.3042599856853485 0.43695300817489624 108 88 87 0
6349 0.22867299616336823 0.2615100145339966 0.7067440152168274 98 90 101 0
6350 0.1607609987258911 0.4549599885940552 0.7606729865074158 111 103 116 0
6351 0.17536599934101105 0.4240550100803375 0.7112619876861572 128 117 131 0
6352 -0.49803900718688965 0.3258489966392517 0.5417360067367554 58 56 69 0
6353 0.17538300156593323 0.4069240093231201 0.6961519718170166 80 74 78 0
6354 0.3897550106048584 0.3614549934864044 0.37200498580932617 101 93 104 0
6355 0.396683007478714 0.3409999907016754 0.3644619882106781 113 105 126 0
6356 -0.5187159776687622 0.29541000723838806 0.4839400053024292 140 132 156 0
6357 0.21959300339221954 0.31257200241088867 0.4440940022468567 119 103 114 0
6358 -0.5226640105247498 0.27257800102233887 0.5140060186386108 44 42 53 0
6359 -0.5054389834403992 0.3023169934749603 0.4951539933681488 76 73 84 0
6360 -0.4536519944667816 0.49789199233055115 0.5808150172233582 48 42 44 0
6361 -0.4993239939212799 0.28998300433158875 0.4920159876346588 160 151 172 0
6362 0.2790150046348572 0.3439539968967438 0.41118699312210083 131 116 123 0
6363 0.27105599641799927 0.37726500630378723 0.4857639968395233 40 34 38 0
6364 -0.49739399552345276 0.6017789840698242 0.6752610206604004 13 11 14 0
6365 0.16740599274635315 0.4019300043582916 0.6689509749412537 16 10 22 0
6366 -0.5128759741783142 0.2877509891986847 0.5106710195541382 150 141 160 0
6367 -0.0072592501528561115 0.501255989074707 0.5458160042762756 65 63 77 0
6368 -0.012719400227069855 0.484950989484787 0.5453109741210938 81 79 92 0
6369 0.2681869864463806 0.2874380052089691 0.5044659972190857 41 36 40 0
6370 0.3301979899406433 0.32133999466896057 0.42876100540161133 53 42 40 0
6371 0.39285799860954285 0.33755800127983093 0.3071739971637726 142 134 158 0
6372 -0.5020130276679993 0.30026400089263916 0.9724879860877991 57 55 66 0
6373 -0.47370100021362305 0.2962360084056854 0.991320013999939 49 46 53 0
6374 -0.3341740071773529 0.04983390122652054 0.9337249994277954 112 107 127 0
6375 0.0436428003013134 0.3642289936542511 0.526108980178833 116 105 119 0
6376 -0.397830992937088 0.34288498759269714 0.8955680131912231 44 41 50 0
6377 0.42718198895454407 0.3662860095500946 0.31882598996162415 139 125 150 0
6378 0.3952670097351074 0.35073500871658325 0.296097993850708 95 38 21 0
6379 0.39493998885154724 0.3380419909954071 0.3080480098724365 143 134 161 0
6380 0.3402619957923889 0.4079979956150055 0.40395501255989075 55 47 58 0
6381 0.3240779936313629 0.2776319980621338 0.5899900197982788 101 94 110 0
6382 0.4222249984741211 0.39702001214027405 0.3333199918270111 99 85 98 0
6383 0.39700400829315186 0.3707909882068634 0.3414149880409241 84 78 90 0
6384 0.45202699303627014 0.3870129883289337 0.3428040146827698 141 129 151 0
6385 0.4229219853878021 0.35730499029159546 0.32351499795913696 81 61 62 0
6386 0.3965190052986145 0.372296005487442 0.32927200198173523 79 75 90 0
6387 0.4118579924106598 0.3522529900074005 0.3027769923210144 152 138 161 0
6388 0.41155898571014404 0.3639490008354187 0.3109700083732605 97 42 35 0
6389 -0.5846059918403625 0.3998660147190094 0.775672972202301 22 20 33 0
6390 0.15561999380588531 0.07902800291776657 0.9042530059814453 96 93 112 0
6391 0.15852899849414825 0.47732698917388916 0.953499972820282 44 42 53 0
6392 0.3005029857158661 0.3217560052871704 0.3915629982948303 137 121 131 0
6393 0.313713014125824 0.3210409879684448 0.37707000970840454 152 135 145 0
6394 0.0005396169726736844 -0.017802400514483452 1.0591399669647217 30 29 34 0
6395 0.0008713079732842743 -0.05605829879641533 1.0483499765396118 36 34 39 0
6396 0.33635199069976807 0.3295789957046509 0.4032059907913208 119 101 97 0
6397 0.32109200954437256 0.32086798548698425 0.3903219997882843 111 92 86 0
6398 0.015572600066661835 0.5267249941825867 0.7634199857711792 13 10 19 0
6399 0.3385370075702667 0.2643269896507263 0.5003610253334045 128 112 122 0
6400 0.3374269902706146 0.32720500230789185 0.37195199728012085 75 61 60 0
6401 -0.019897600635886192 0.45218899846076965 0.6127430200576782 97 89 102 0
6402 0.1266160011291504 0.43627700209617615 0.7077940106391907 12 6 18 0
6403 -0.6087179780006409 0.40301498770713806 0.8117640018463135 42 41 59 0
6404 0.2713780105113983 0.22831299901008606 0.5771380066871643 77 71 81 0
6405 0.2787860035896301 0.28837600350379944 0.46757400035858154 137 120 126 0
6406 0.2846679985523224 0.2960909903049469 0.4779750108718872 110 95 100 0
6407 0.3892109990119934 0.3609130084514618 0.36798200011253357 97 86 94 0
6408 0.3976829946041107 0.36340001225471497 0.37907999753952026 100 90 101 0
6409 0.26053598523139954 0.21927200257778168 0.6381819844245911 78 70 81 0
6410 0.27533701062202454 0.22142300009727478 0.6674119830131531 14 9 13 0
6411 0.24643300473690033 0.2964150011539459 0.5022019743919373 125 113 123 0
6412 -0.5206019878387451 0.3054659962654114 0.56597501039505 118 115 136 0
6413 -0.6050729751586914 0.39039599895477295 0.8090469837188721 44 45 66 0
6414 0.37646299600601196 0.46233901381492615 0.5272949934005737 100 92 103 0
6415 0.3644759953022003 0.3411319851875305 0.372655987739563 130 117 134 0
6416 0.30898499488830566 0.27727898955345154 0.5156239867210388 120 108 118 0
6417 0.2947950065135956 0.24232499301433563 0.5767980217933655 27 26 40 0
6418 0.378618985414505 0.31531500816345215 0.4528599977493286 128 112 123 0
6419 0.32036200165748596 0.39362698793411255 0.43432098627090454 100 92 103 0
6420 0.4233030080795288 0.34181299805641174 0.3754119873046875 121 113 134 0
6421 0.3931970000267029 0.3361310064792633 0.34590399265289307 132 122 147 0
6422 0.3966749906539917 0.37380799651145935 0.3685869872570038 40 16 4 0
6423 0.01926269941031933 0.4985150098800659 0.46249398589134216 100 93 109 0
6424 0.020219000056385994 0.527633011341095 0.4894930124282837 95 88 104 0
6425 -0.02650119923055172 0.4562219977378845 0.5957499742507935 13 8 12 0
6426 -0.5231969952583313 0.23514999449253082 0.4286450147628784 30 26 77 0
6427 0.20422400534152985 0.252579003572464 0.6631709933280945 133 123 132 0
6428 -0.45232900977134705 0.4983760118484497 0.5784369707107544 51 49 54 0
6429 0.4061970114707947 0.38270899653434753 0.37991800904273987 29 20 21 0
6430 -0.5616779923439026 0.3270390033721924 0.9670150279998779 42 39 46 0
6431 0.38561201095581055 0.42338499426841736 0.443464994430542 106 94 104 0
6432 0.23978200554847717 0.347106009721756 0.5113139748573303 58 52 62 0
6433 -0.53118497133255 0.2636120021343231 0.5238329768180847 8 3 9 0
6434 0.1952819973230362 0.44291600584983826 0.6985780000686646 113 101 113 0
6435 0.39760899543762207 0.33515799045562744 0.4457870125770569 106 95 103 0
6436 -0.6595460176467896 0.3511140048503876 0.882220983505249 20 18 32 0
6437 0.10855399817228317 0.4177449941635132 0.6621670126914978 115 107 120 0
6438 0.30906400084495544 0.33491501212120056 0.38155099749565125 145 126 132 0
6439 0.26297301054000854 0.3670920133590698 0.48236599564552307 100 93 100 0
6440 7.667930185562e-05 0.44839200377464294 0.6239650249481201 117 109 124 0
6441 0.34267500042915344 0.3244769871234894 0.4349859952926636 89 75 75 0
6442 0.23888899385929108 0.32940998673439026 0.47734901309013367 134 118 128 0
6443 0.28950798511505127 0.34716200828552246 0.3875289857387543 97 79 77 0
6444 0.3047100007534027 0.3597390055656433 0.40007999539375305 142 123 127 0
6445 -0.027945000678300858 0.44781601428985596 0.5939109921455383 106 98 111 0
6446 0.2540859878063202 0.3536339998245239 0.464231014251709 101 91 99 0
6447 0.3001439869403839 0.35968300700187683 0.3866629898548126 9 3 7 0
6448 0.19689099490642548 0.24488699436187744 0.6408960223197937 131 121 130 0
6449 -0.029054300859570503 0.4590049982070923 0.5994790196418762 25 19 23 0
6450 0.42387598752975464 0.3466089963912964 0.3245530128479004 156 143 163 0
6451 0.40723100304603577 0.3445810079574585 0.32542499899864197 46 39 47 0
6452 0.3947789967060089 0.34643998742103577 0.3276579976081848 48 34 47 0
6453 0.4041770100593567 0.3436880111694336 0.32779499888420105 73 70 97 0
6454 0.3937470018863678 0.36789101362228394 0.36190900206565857 86 74 78 0
6455 0.39821699261665344 0.35000699758529663 0.3306899964809418 47 31 42 0
6456 0.41141200065612793 0.3300749957561493 0.35629698634147644 89 85 102 0
6457 0.387237012386322 0.3299590051174164 0.33930298686027527 131 121 146 0
6458 0.39418700337409973 0.37521299719810486 0.3647420108318329 121 67 23 0
6459 0.4058989882469177 0.34713900089263916 0.33396801352500916 139 130 157 0
6460 0.41329601407051086 0.3482460081577301 0.32790499925613403 47 40 47 0
6461 0.41805800795555115 0.34104999899864197 0.34240999817848206 140 134 160 0
6462 0.3934740126132965 0.3328379988670349 0.325886994600296 141 133 156 0
6463 0.4131990075111389 0.3332569897174835 0.35519200563430786 143 135 156 0
6464 0.40143299102783203 0.37262699007987976 0.35041099786758423 81 69 79 0
6465 0.3966419994831085 0.35892000794410706 0.37821298837661743 35 30 36 0
6466 0.3913379907608032 0.3632049858570099 0.37365999817848206 27 22 29 0
6467 0.3974449932575226 0.3706069886684418 0.3457910120487213 82 72 83 0
6468 0.3624590039253235 0.34852999448776245 0.40077099204063416 14 8 8 0
6469 0.2635360062122345 0.33133798837661743 0.3966580033302307 87 73 70 0
6470 0.281686007976532 0.3331480026245117 0.3607510030269623 146 129 139 0
6471 0.321276992559433 0.3513050079345703 0.38104501366615295 152 134 148 0
6472 0.3144359886646271 0.33816900849342346 0.38576099276542664 145 125 134 0
6473 0.2761330008506775 0.337552011013031 0.4210270047187805 150 130 139 0
6474 0.2973960041999817 0.2782230079174042 0.42789000272750854 138 118 119 0
6475 -0.5366889834403992 -0.051196400076150894 0.766040027141571 18 15 22 0
6476 -0.018511300906538963 0.43242698907852173 0.5813819766044617 115 107 118 0
6477 -0.6452609896659851 0.0502982996404171 0.7713609933853149 15 13 18 0
6478 0.07879889756441116 0.48120400309562683 0.5506349802017212 18 13 20 0
6479 0.3268449902534485 0.369253009557724 0.3682439923286438 52 41 45 0
6480 -0.0031316899694502354 0.49184900522232056 0.5229979753494263 92 84 97 0
6481 0.30908501148223877 0.45797601342201233 0.4122839868068695 75 72 81 0
